# .PCD v.5 - Point Cloud Data file format
VERSION .5
FIELDS x y z
SIZE 4 4 4
TYPE F F F
COUNT 1 1 1
WIDTH 4309
HEIGHT 1
POINTS 4309
DATA ascii
31 112 -55
31 113 -55
31 114 -55
32 116 -58
32 117 -58
32 118 -58
32 119 -58
32 122 -58
32 123 -58
32 124 -58
33 125 -59
33 126 -59
31 127 -55
31 128 -56
32 129 -58
31 132 -55
31 133 -55
31 134 -56
31 135 -55
32 136 -58
32 137 -58
31 175 -56
31 176 -56
31 178 -56
31 179 -56
32 196 -58
32 197 -58
32 204 -58
32 206 -58
29 91 -56
29 92 -56
29 93 -56
29 95 -56
29 96 -56
29 97 -56
29 102 -56
29 103 -56
29 104 -56
29 105 -56
29 106 -56
29 107 -56
29 108 -56
29 111 -56
29 112 -56
29 114 -56
29 115 -56
29 123 -56
29 124 -56
29 125 -56
29 127 -56
29 128 -56
29 129 -56
29 132 -56
29 133 -56
29 134 -56
29 135 -56
31 159 -59
31 160 -59
31 161 -59
31 162 -59
31 197 -59
31 198 -59
31 204 -59
31 206 -59
27 91 -56
27 92 -56
27 93 -56
27 100 -57
27 101 -57
27 106 -57
27 107 -57
27 108 -57
27 109 -57
27 110 -57
27 117 -57
27 118 -57
27 123 -57
27 124 -57
27 125 -57
27 132 -57
27 133 -57
27 134 -57
27 135 -57
29 172 -60
29 173 -60
29 175 -60
29 176 -60
29 198 -60
29 199 -60
28 203 -59
29 204 -61
29 205 -60
28 206 -59
26 210 -54
26 211 -54
26 212 -54
26 103 -58
26 104 -58
26 116 -59
26 117 -59
27 118 -61
26 123 -58
26 124 -58
26 125 -58
26 126 -58
26 133 -58
26 134 -58
26 135 -58
27 172 -61
27 173 -61
27 175 -61
27 176 -61
27 198 -60
27 199 -60
27 200 -61
27 201 -61
27 204 -61
27 205 -61
27 206 -61
24 90 -58
24 91 -58
24 92 -58
24 93 -58
24 94 -58
24 95 -58
24 104 -59
24 105 -59
25 114 -59
25 116 -59
24 117 -59
24 118 -59
24 120 -59
24 121 -59
24 125 -59
24 126 -59
25 172 -61
25 173 -61
25 175 -61
25 176 -61
25 177 -59
25 178 -60
25 179 -59
25 197 -61
26 198 -62
25 203 -60
26 204 -62
25 205 -61
25 206 -61
22 105 -59
22 106 -59
22 116 -59
23 117 -61
23 118 -61
23 119 -60
22 122 -59
22 123 -59
22 127 -59
22 128 -59
24 172 -62
24 173 -62
23 174 -61
24 175 -62
23 176 -60
22 177 -59
23 178 -60
23 179 -60
23 190 -61
23 191 -61
23 192 -61
24 197 -62
23 198 -61
24 199 -62
24 200 -63
24 204 -63
24 205 -62
23 207 -61
21 106 -60
21 107 -60
21 108 -60
21 109 -60
21 110 -60
22 112 -63
22 113 -64
22 114 -64
21 119 -60
21 120 -60
21 123 -60
21 124 -60
21 125 -60
22 171 -63
22 172 -64
21 173 -61
21 174 -61
22 175 -63
22 176 -63
21 177 -61
21 190 -62
21 191 -62
21 192 -62
22 196 -63
21 197 -62
21 198 -62
21 200 -61
22 201 -63
22 202 -64
22 203 -63
21 204 -61
21 206 -62
21 207 -62
19 99 -60
19 100 -60
19 101 -60
19 102 -60
19 104 -60
19 105 -60
19 106 -60
19 107 -60
19 108 -60
19 109 -60
19 110 -60
19 112 -60
19 113 -60
19 116 -60
19 117 -60
19 118 -60
19 119 -60
19 120 -60
19 121 -60
19 170 -61
19 171 -61
20 172 -63
20 173 -63
19 174 -61
20 175 -63
20 176 -64
20 177 -62
19 178 -61
20 196 -63
20 197 -62
20 198 -62
20 200 -63
20 201 -62
19 202 -61
19 205 -61
20 206 -62
20 207 -62
18 210 -59
18 211 -59
18 212 -59
17 91 -61
17 92 -61
17 93 -61
17 94 -61
17 95 -61
17 96 -61
17 97 -61
17 98 -61
17 103 -61
17 104 -61
17 105 -61
17 110 -61
17 111 -61
17 114 -61
17 115 -61
17 132 -61
17 133 -61
17 134 -61
18 172 -64
18 173 -64
18 174 -63
18 175 -65
18 176 -63
17 177 -61
18 178 -62
18 179 -62
18 196 -64
18 197 -63
18 207 -63
18 208 -63
17 211 -59
17 212 -59
17 213 -59
15 90 -61
15 91 -61
15 93 -61
15 94 -61
15 111 -61
15 112 -61
16 116 -65
16 117 -64
16 118 -62
15 132 -61
15 133 -61
15 134 -61
15 135 -61
16 160 -64
16 161 -64
16 162 -64
16 172 -64
16 173 -64
16 174 -64
16 175 -64
16 177 -62
16 178 -62
16 179 -62
16 197 -64
16 198 -63
16 201 -62
16 202 -64
16 203 -65
16 204 -65
16 205 -64
16 206 -63
16 207 -63
16 208 -63
14 78 -63
14 79 -64
14 80 -63
14 112 -62
14 113 -62
14 114 -62
14 115 -62
14 122 -64
14 123 -63
14 124 -63
14 132 -62
14 133 -62
14 134 -62
14 174 -64
14 175 -65
14 176 -64
14 196 -65
14 197 -64
14 203 -63
14 206 -63
14 207 -64
14 208 -64
12 113 -62
12 114 -62
12 115 -62
12 122 -62
12 123 -62
12 124 -62
12 125 -62
12 132 -62
12 133 -62
12 134 -62
12 172 -65
12 173 -65
12 174 -65
12 175 -65
12 177 -63
12 178 -63
12 179 -63
12 197 -65
12 198 -64
12 207 -64
12 208 -64
10 113 -63
10 114 -63
10 115 -63
10 116 -63
10 117 -63
10 118 -63
10 120 -63
10 121 -63
10 124 -63
10 125 -63
11 171 -66
11 172 -66
11 175 -66
11 176 -66
11 196 -66
10 197 -65
10 207 -65
10 208 -65
8 113 -63
8 114 -63
9 115 -66
9 116 -66
8 117 -63
9 118 -65
9 119 -66
8 120 -64
8 121 -63
9 122 -67
9 123 -66
8 124 -64
9 172 -66
9 173 -67
8 174 -64
9 175 -66
9 176 -65
9 191 -65
9 192 -65
9 193 -65
9 197 -65
9 198 -65
9 200 -66
9 201 -65
9 207 -65
9 208 -65
7 75 -64
7 76 -64
7 78 -64
7 79 -64
6 113 -63
6 114 -63
7 116 -66
7 117 -64
7 118 -66
6 123 -63
6 124 -63
6 125 -63
6 132 -63
6 133 -63
6 134 -63
7 197 -65
7 198 -65
7 207 -65
7 208 -65
5 79 -65
5 80 -65
5 81 -65
5 175 -64
5 176 -64
5 177 -64
5 178 -64
5 191 -66
5 192 -66
5 196 -65
5 197 -65
5 198 -66
5 199 -64
5 200 -66
5 201 -65
5 207 -65
5 208 -65
4 211 -61
4 212 -61
4 213 -61
3 113 -63
3 114 -63
3 115 -63
3 116 -64
3 117 -64
3 118 -64
3 119 -66
3 123 -63
3 124 -63
3 125 -63
3 132 -63
3 133 -63
3 134 -63
3 171 -64
3 172 -63
3 173 -63
3 174 -67
3 175 -66
3 176 -65
3 177 -64
3 178 -64
3 179 -64
3 180 -64
3 196 -65
3 197 -65
3 198 -65
3 200 -65
3 201 -65
3 207 -65
3 208 -65
3 211 -61
3 212 -61
3 213 -61
1 121 -63
1 122 -63
1 127 -63
1 128 -63
1 170 -64
1 171 -64
1 172 -64
1 173 -64
1 176 -64
1 177 -64
1 178 -64
1 179 -64
1 185 -64
1 186 -64
1 187 -64
1 197 -65
1 198 -65
1 207 -65
1 208 -65
1 211 -61
1 212 -61
1 213 -61
1 214 -61
0 117 -63
0 118 -63
0 119 -63
0 123 -63
0 124 -63
0 125 -63
0 134 -63
0 135 -63
0 136 -63
0 177 -64
0 178 -64
0 179 -64
0 197 -65
0 198 -65
0 207 -64
0 208 -66
0 209 -65
0 212 -61
0 213 -61
0 214 -61
-2 82 -64
-2 83 -64
-2 85 -64
-2 86 -64
-2 113 -64
-2 114 -64
-2 123 -64
-2 124 -64
-2 127 -64
-2 128 -63
-2 130 -64
-2 177 -64
-2 178 -64
-2 179 -64
-2 197 -65
-2 198 -65
-2 207 -64
-2 208 -66
-2 209 -65
-2 212 -61
-2 213 -61
-2 214 -61
-4 109 -64
-4 110 -65
-4 111 -63
-4 115 -65
-4 116 -65
-4 117 -65
-4 118 -65
-4 119 -65
-4 122 -65
-4 123 -66
-4 132 -65
-4 133 -65
-4 134 -65
-4 170 -64
-4 171 -64
-4 173 -64
-4 174 -64
-4 175 -64
-4 176 -64
-4 177 -64
-4 178 -64
-4 200 -65
-4 201 -65
-4 207 -66
-4 208 -64
-3 212 -61
-3 213 -61
-3 214 -61
-5 85 -64
-5 86 -63
-5 87 -64
-5 106 -64
-5 107 -64
-5 108 -64
-6 128 -65
-6 129 -65
-6 130 -65
-6 136 -65
-6 137 -65
-6 138 -65
-5 170 -64
-5 171 -64
-5 172 -64
-6 197 -65
-5 198 -64
-6 199 -66
-6 200 -65
-6 201 -65
-5 206 -64
-6 207 -66
-6 208 -65
-5 212 -61
-5 213 -61
-5 214 -61
-7 92 -63
-7 93 -63
-7 94 -63
-7 103 -64
-7 104 -65
-7 105 -64
-8 175 -66
-8 176 -66
-8 177 -66
-8 178 -66
-7 197 -65
-7 198 -65
-7 206 -64
-8 207 -66
-7 208 -65
-7 212 -61
-7 213 -61
-7 214 -61
-9 85 -64
-9 86 -64
-9 87 -64
-9 92 -63
-9 93 -63
-9 94 -63
-9 106 -65
-9 107 -65
-9 108 -65
-9 114 -64
-9 115 -64
-9 119 -64
-9 120 -64
-9 121 -64
-9 122 -64
-9 123 -64
-9 124 -64
-9 125 -64
-9 126 -64
-9 127 -64
-9 128 -64
-9 129 -64
-9 130 -64
-9 137 -64
-9 138 -64
-9 139 -64
-9 171 -66
-9 172 -66
-9 175 -66
-9 176 -66
-9 192 -65
-9 193 -65
-9 194 -65
-9 197 -65
-9 205 -64
-9 206 -66
-9 207 -65
-9 208 -65
-9 212 -61
-9 213 -61
-9 214 -61
-11 86 -63
-11 87 -63
-11 88 -63
-11 92 -62
-11 93 -62
-11 94 -62
-11 99 -64
-11 101 -64
-11 131 -63
-11 132 -63
-11 133 -63
-11 134 -63
-11 159 -65
-11 160 -65
-11 161 -65
-11 170 -64
-11 171 -64
-11 172 -64
-11 173 -62
-12 174 -66
-11 175 -63
-11 176 -65
-11 177 -63
-11 178 -62
-11 179 -62
-11 182 -64
-11 183 -64
-11 186 -64
-11 187 -64
-11 191 -64
-11 192 -64
-11 193 -64
-11 199 -64
-11 200 -65
-11 202 -63
-11 203 -63
-11 206 -65
-11 207 -64
-11 208 -64
-10 212 -61
-10 213 -61
-10 214 -61
-13 106 -63
-13 107 -64
-13 108 -63
-13 135 -63
-13 136 -63
-13 137 -63
-13 173 -62
-13 174 -65
-13 175 -64
-13 176 -64
-13 177 -62
-13 178 -64
-13 182 -64
-13 183 -64
-13 184 -64
-13 186 -64
-13 187 -64
-13 192 -64
-13 193 -64
-13 194 -64
-13 195 -64
-13 196 -65
-13 197 -64
-13 198 -63
-13 199 -63
-13 201 -64
-13 202 -65
-13 205 -65
-13 206 -64
-13 207 -62
-13 208 -63
-13 209 -63
-12 212 -60
-12 213 -60
-12 214 -60
-15 75 -63
-15 76 -63
-15 77 -63
-15 104 -63
-15 105 -63
-15 107 -63
-15 142 -63
-15 143 -63
-15 144 -63
-14 154 -62
-14 155 -62
-14 156 -62
-14 157 -62
-14 161 -62
-14 162 -62
-14 164 -62
-14 165 -62
-14 166 -62
-14 167 -62
-14 171 -62
-14 172 -62
-14 174 -62
-14 175 -62
-14 176 -62
-14 178 -62
-15 191 -63
-15 192 -63
-15 193 -63
-15 196 -64
-15 197 -63
-14 203 -62
-15 204 -64
-15 205 -65
-15 206 -64
-14 207 -62
-15 208 -63
-15 209 -63
-14 212 -60
-14 213 -60
-14 214 -60
-16 95 -61
-16 96 -61
-16 97 -61
-16 104 -62
-16 105 -62
-16 138 -62
-16 139 -62
-16 140 -62
-16 179 -62
-16 180 -62
-16 181 -62
-16 182 -62
-16 183 -62
-16 189 -62
-16 190 -62
-16 191 -62
-16 192 -62
-16 197 -62
-16 198 -62
-16 199 -62
-16 201 -62
-16 202 -62
-16 204 -62
-16 205 -62
-16 206 -62
-16 207 -62
-16 208 -62
-16 213 -59
-16 214 -59
-16 215 -59
-18 133 -62
-18 134 -62
-18 136 -62
-18 137 -62
-18 140 -62
-18 141 -62
-18 142 -62
-18 149 -62
-18 150 -62
-18 151 -62
-18 197 -62
-18 198 -62
-18 199 -62
-18 200 -62
-18 201 -62
-18 202 -62
-18 207 -62
-18 208 -62
-17 212 -59
-17 213 -59
-17 214 -59
-20 77 -60
-20 78 -61
-20 79 -60
-19 116 -59
-19 117 -59
-19 119 -59
-20 121 -62
-20 122 -61
-20 128 -61
-20 129 -61
-20 130 -61
-20 134 -61
-20 135 -61
-20 136 -61
-20 141 -61
-20 142 -61
-20 143 -61
-20 197 -61
-20 198 -62
-20 207 -62
-20 208 -61
-21 82 -60
-21 83 -60
-21 84 -60
-21 107 -60
-21 108 -60
-21 109 -60
-21 110 -60
-21 117 -59
-21 118 -59
-21 119 -59
-21 130 -60
-21 131 -60
-21 132 -60
-21 133 -60
-21 134 -60
-21 135 -60
-21 142 -60
-21 143 -60
-21 144 -60
-22 190 -61
-21 191 -59
-21 193 -60
-22 197 -61
-22 198 -61
-21 204 -60
-22 206 -62
-22 207 -61
-22 208 -61
-23 86 -58
-23 87 -58
-23 88 -58
-23 92 -59
-23 93 -59
-23 94 -59
-24 121 -60
-24 122 -60
-24 123 -60
-24 124 -60
-24 125 -60
-24 126 -60
-23 134 -59
-23 135 -59
-23 136 -59
-23 143 -59
-23 144 -59
-23 145 -59
-24 197 -60
-24 198 -60
-24 199 -61
-24 205 -61
-24 206 -60
-23 207 -59
-23 208 -59
-24 76 -57
-25 77 -58
-24 78 -56
-25 114 -58
-25 115 -58
-24 118 -57
-24 119 -57
-24 120 -57
-25 185 -59
-25 191 -59
-25 192 -58
-25 193 -58
-25 196 -59
-25 197 -58
-25 207 -58
-25 208 -58
-24 212 -56
-24 213 -56
-24 214 -56
-26 93 -57
-27 94 -58
-26 95 -57
-26 103 -57
-26 104 -57
-26 105 -57
-26 108 -56
-26 109 -56
-26 110 -56
-26 112 -57
-27 113 -58
-26 114 -57
-27 115 -58
-27 116 -58
-26 127 -56
-26 128 -56
-26 129 -56
-26 132 -56
-26 133 -56
-26 134 -56
-27 153 -58
-27 154 -58
-27 155 -58
-27 159 -58
-27 160 -58
-27 161 -58
-27 183 -58
-27 184 -58
-27 191 -58
-27 192 -58
-27 193 -58
-27 197 -58
-27 198 -58
-27 199 -58
-27 200 -58
-27 201 -58
-27 206 -58
-27 207 -58
-27 208 -58
-26 212 -56
-26 213 -56
-26 214 -56
-27 104 -55
-27 105 -55
-27 106 -55
-28 117 -56
-28 118 -56
-28 119 -56
-27 123 -55
-28 124 -56
-28 125 -56
-28 126 -56
-28 127 -56
-28 128 -56
-28 129 -56
-28 130 -56
-28 148 -56
-28 149 -56
-28 150 -56
-28 151 -56
-28 152 -56
-28 185 -56
-28 186 -56
-28 187 -56
-29 190 -58
-29 191 -58
-29 192 -58
-28 198 -57
-28 199 -57
-28 206 -57
-28 207 -57
-28 208 -57
-27 212 -55
-27 213 -55
-27 214 -55
-29 82 -54
-28 83 -53
-29 84 -55
-30 85 -56
-29 86 -55
-30 153 -56
-30 154 -56
-30 157 -56
-30 158 -56
-30 172 -56
-30 173 -56
-30 174 -56
-30 196 -56
-30 197 -56
-30 199 -56
-30 200 -56
-30 201 -56
-30 208 -56
-31 74 -54
-31 75 -54
-31 76 -54
-31 97 -54
-31 98 -54
-31 99 -54
-31 113 -54
-31 114 -55
-30 115 -53
-31 116 -54
-31 117 -54
-31 152 -54
-31 153 -54
-31 159 -54
-31 160 -54
-31 163 -54
-31 164 -54
-31 166 -54
-31 167 -54
-31 170 -55
-31 171 -55
-31 172 -55
-31 175 -55
-31 176 -55
-31 177 -55
-31 197 -55
-31 198 -55
-31 206 -54
-32 207 -56
-31 208 -55
-32 83 -52
-32 84 -52
-32 85 -52
-32 98 -53
-32 99 -53
-32 100 -53
-32 124 -53
-32 125 -53
-32 126 -53
-33 197 -54
-33 198 -54
-33 205 -54
-33 207 -54
-32 212 -52
-32 213 -52
-32 214 -52
-34 94 -52
-34 95 -52
-34 96 -52
-34 111 -52
-34 112 -52
-34 113 -52
-34 119 -52
-34 120 -52
-34 121 -52
-34 152 -52
-34 153 -52
-34 154 -52
-34 155 -52
-35 198 -53
-35 199 -53
-34 205 -52
-35 206 -54
-35 207 -53
-33 210 -51
-33 211 -51
-33 212 -51
-33 213 -51
-35 74 -50
-35 75 -50
-35 76 -50
-35 77 -50
-35 78 -50
-35 79 -50
-35 114 -51
-35 115 -51
-35 116 -51
-35 119 -51
-35 120 -51
-35 121 -51
-36 185 -52
-36 186 -52
-36 198 -52
-37 199 -53
-36 205 -52
-36 206 -52
-36 207 -52
-35 211 -50
-35 212 -50
-35 213 -50
-35 214 -50
-36 81 -49
-36 82 -49
-36 86 -49
-36 87 -49
-36 93 -49
-36 94 -49
-35 96 -48
-36 97 -49
-36 106 -49
-36 107 -49
-36 109 -49
-35 110 -48
-37 111 -50
-36 112 -49
-36 113 -49
-37 119 -50
-37 124 -50
-37 125 -50
-37 129 -50
-36 131 -49
-37 133 -50
-36 134 -49
-37 185 -50
-37 186 -50
-37 187 -50
-38 197 -51
-38 198 -51
-37 201 -50
-38 205 -52
-38 206 -51
-38 207 -51
-36 211 -49
-36 212 -49
-36 213 -49
-38 75 -48
-38 76 -48
-38 77 -48
-38 150 -48
-39 192 -50
-39 193 -50
-38 196 -49
-40 197 -51
-38 198 -49
-40 204 -51
-39 205 -50
-38 206 -48
-38 207 -49
-38 212 -48
-38 213 -48
-38 214 -48
-39 102 -47
-39 103 -47
-39 104 -47
-39 108 -47
-26 145 -32
-26 146 -32
-26 147 -32
-40 191 -49
-40 192 -49
-40 193 -49
-40 200 -49
-41 201 -49
-41 204 -49
-40 205 -49
-40 206 -48
-40 207 -48
-39 211 -47
-39 212 -47
-39 213 -47
-39 214 -47
-40 119 -45
-40 120 -45
-40 123 -45
-41 138 -47
-41 139 -47
-41 140 -47
-41 150 -47
-41 151 -47
-41 152 -47
-41 188 -47
-41 189 -47
-41 190 -46
-42 191 -48
-42 192 -48
-42 193 -48
-42 194 -48
-41 195 -47
-42 196 -48
-42 198 -48
-41 199 -47
-41 201 -46
-42 202 -48
-42 203 -48
-42 204 -48
-41 205 -47
-41 206 -47
-41 211 -46
-41 212 -46
-41 213 -46
-41 214 -46
-42 105 -45
-42 106 -45
-42 107 -45
-42 128 -45
-42 129 -45
-41 130 -44
-42 131 -45
-41 132 -44
-42 134 -45
-42 135 -46
-42 136 -45
-42 137 -46
-42 138 -45
-42 139 -45
-42 147 -46
-43 148 -46
-42 149 -46
-42 188 -46
-42 189 -46
-42 191 -45
-43 192 -46
-43 198 -46
-42 199 -46
-42 206 -46
-42 207 -46
-42 211 -45
-42 212 -45
-42 213 -45
-42 214 -45
-42 90 -42
-42 91 -42
-42 92 -42
-42 93 -42
-42 101 -43
-42 102 -43
-42 103 -43
-43 135 -44
-43 136 -44
-43 137 -44
-44 143 -44
-44 144 -44
-44 145 -44
-45 157 -45
-45 158 -45
-45 162 -45
-45 163 -45
-45 166 -45
-44 167 -44
-45 168 -45
-45 170 -45
-45 171 -45
-45 172 -45
-45 174 -45
-45 175 -46
-44 182 -44
-45 189 -45
-45 191 -45
-45 198 -45
-44 199 -44
-44 206 -44
-44 207 -44
-43 211 -44
-43 212 -44
-43 213 -44
-43 214 -44
-43 89 -41
-43 90 -41
-43 93 -41
-43 94 -41
-44 102 -42
-44 103 -42
-44 104 -42
-44 133 -42
-44 134 -42
-44 135 -42
-46 174 -44
-46 175 -44
-46 176 -44
-45 191 -43
-45 192 -43
-45 193 -43
-45 202 -43
-45 203 -43
-45 205 -43
-45 206 -43
-45 207 -43
-44 210 -42
-44 211 -42
-44 213 -42
-44 214 -42
-44 91 -40
-44 92 -40
-44 93 -40
-44 94 -40
-44 95 -40
-44 96 -40
-45 105 -40
-45 106 -40
-45 107 -40
-46 113 -41
-46 114 -41
-46 115 -41
-46 126 -41
-46 127 -41
-46 131 -41
-46 136 -41
-46 137 -42
-46 138 -41
-47 160 -42
-47 161 -42
-47 162 -42
-46 171 -41
-46 172 -41
-46 173 -41
-46 174 -41
-46 175 -41
-46 176 -41
-46 180 -41
-46 181 -41
-47 184 -42
-46 185 -41
-48 186 -43
-46 187 -41
-47 198 -42
-46 199 -42
-46 205 -42
-46 206 -42
-46 207 -42
-46 210 -41
-46 211 -41
-46 212 -41
-46 213 -41
-44 90 -38
-44 91 -38
-44 93 -38
-44 94 -38
-47 133 -40
-47 135 -40
-47 197 -40
-47 198 -40
-47 199 -40
-47 201 -40
-47 202 -40
-47 205 -40
-48 206 -41
-47 210 -40
-47 211 -40
-47 212 -40
-47 213 -40
-46 84 -37
-47 85 -38
-47 86 -38
-47 87 -38
-48 88 -38
-46 90 -36
-46 91 -36
-46 92 -36
-48 104 -38
-48 105 -38
-48 106 -38
-47 112 -38
-47 114 -38
-47 115 -38
-47 128 -38
-47 129 -38
-47 130 -38
-48 135 -38
-48 136 -38
-48 137 -38
-47 153 -38
-47 154 -38
-47 155 -38
-49 171 -40
-49 172 -40
-49 173 -40
-49 175 -40
-49 176 -40
-46 177 -37
-47 178 -38
-48 179 -38
-47 180 -38
-48 191 -38
-48 192 -38
-48 193 -38
-49 198 -39
-49 199 -39
-48 205 -38
-49 206 -40
-49 207 -39
-48 210 -38
-48 211 -38
-48 212 -38
-48 213 -38
-48 214 -38
-49 107 -37
-49 108 -37
-48 109 -36
-48 110 -36
-47 111 -36
-50 137 -38
-50 138 -38
-50 139 -38
-48 166 -36
-48 167 -36
-48 168 -36
-51 171 -38
-51 172 -38
-51 173 -38
-51 174 -38
-51 175 -38
-51 176 -38
-51 177 -38
-50 186 -38
-50 187 -38
-50 188 -38
-49 192 -37
-49 193 -37
-49 194 -37
-50 197 -38
-51 198 -38
-50 205 -38
-50 206 -38
-49 210 -37
-49 211 -37
-49 212 -37
-49 213 -37
-49 214 -37
-48 73 -34
-48 74 -34
-48 75 -34
-48 76 -34
-48 80 -34
-48 81 -34
-48 83 -34
-48 84 -34
-48 85 -34
-48 86 -34
-48 91 -34
-48 92 -34
-48 93 -34
-50 113 -35
-50 114 -35
-50 115 -35
-50 116 -35
-50 122 -35
-50 123 -35
-50 124 -35
-50 125 -35
-50 128 -35
-50 129 -35
-52 172 -37
-52 173 -37
-50 174 -35
-51 175 -36
-52 176 -37
-52 177 -37
-49 178 -35
-49 179 -35
-51 198 -36
-52 199 -37
-51 205 -36
-51 206 -36
-50 212 -35
-50 213 -35
-50 214 -35
-49 90 -32
-49 91 -32
-49 93 -32
-49 94 -32
-51 114 -34
-51 115 -34
-50 116 -33
-52 117 -35
-52 118 -35
-52 124 -35
-52 125 -35
-52 145 -35
-52 146 -35
-52 147 -35
-50 154 -33
-50 155 -33
-50 156 -33
-52 158 -35
-52 159 -35
-52 161 -35
-52 162 -35
-50 171 -33
-50 172 -33
-50 173 -33
-51 174 -34
-54 175 -36
-52 176 -35
-53 177 -35
-50 178 -33
-52 198 -35
-53 199 -35
-52 205 -35
-52 206 -35
-51 212 -34
-51 213 -34
-51 214 -34
-50 72 -31
-50 73 -31
-50 74 -31
-50 75 -31
-50 76 -31
-50 77 -31
-50 81 -31
-50 83 -31
-51 84 -32
-52 85 -33
-51 86 -32
-49 89 -31
-49 90 -31
-49 94 -31
-49 95 -31
-49 102 -31
-49 103 -31
-50 106 -31
-49 107 -31
-49 109 -31
-49 110 -31
-49 111 -31
-52 113 -33
-52 114 -33
-52 115 -33
-53 120 -33
-53 121 -33
-53 125 -33
-53 126 -33
-50 133 -31
-50 134 -31
-50 135 -31
-36 152 -22
-36 153 -22
-36 154 -22
-53 158 -33
-53 159 -33
-53 160 -33
-53 161 -33
-53 162 -33
-52 163 -33
-52 164 -33
-51 165 -32
-54 166 -34
-53 167 -33
-53 170 -33
-53 171 -33
-54 174 -34
-55 175 -34
-52 176 -33
-51 177 -32
-51 179 -32
-51 180 -32
-53 185 -33
-53 186 -33
-53 187 -33
-53 197 -33
-54 198 -34
-54 199 -34
-53 200 -33
-54 201 -34
-53 202 -33
-53 203 -33
-53 204 -33
-53 206 -33
-52 212 -33
-52 213 -33
-52 214 -33
-50 71 -29
-50 72 -29
-50 73 -29
-49 89 -29
-49 90 -29
-49 91 -29
-51 92 -30
-49 93 -29
-50 94 -29
-50 95 -29
-50 96 -29
-50 97 -29
-50 98 -29
-50 100 -29
-50 101 -29
-50 102 -29
-50 103 -29
-50 110 -29
-50 111 -29
-51 112 -30
-53 113 -31
-53 115 -31
-53 116 -31
-54 121 -32
-54 122 -32
-53 123 -31
-52 124 -30
-52 125 -30
-54 126 -32
-53 128 -31
-52 129 -30
-51 130 -30
-51 136 -30
-51 137 -30
-51 157 -30
-51 158 -30
-51 159 -30
-54 167 -32
-54 168 -32
-54 169 -32
-54 171 -32
-54 173 -32
-54 174 -32
-55 175 -33
-55 176 -32
-55 177 -32
-54 197 -32
-54 198 -32
-54 204 -32
-54 206 -32
-53 87 -29
-52 88 -28
-51 89 -28
-52 90 -28
-50 93 -28
-50 94 -28
-51 97 -28
-51 98 -28
-51 99 -28
-51 100 -28
-51 102 -28
-51 106 -28
-51 107 -28
-51 108 -28
-51 109 -28
-51 110 -28
-54 113 -29
-54 114 -29
-53 116 -29
-53 117 -29
-51 118 -28
-54 120 -29
-53 121 -29
-51 122 -28
-55 124 -30
-55 125 -30
-55 126 -30
-55 127 -30
-52 129 -28
-50 130 -28
-52 131 -28
-55 136 -30
-53 137 -29
-55 138 -30
-53 164 -29
-52 165 -28
-54 166 -29
-55 167 -30
-55 168 -30
-54 171 -29
-53 172 -29
-53 174 -29
-53 175 -29
-52 176 -28
-54 177 -29
-55 182 -30
-55 183 -30
-55 184 -30
-54 185 -29
-54 186 -29
-54 187 -29
-55 197 -30
-55 198 -30
-55 204 -30
-55 206 -30
-54 87 -27
-54 88 -27
-54 89 -27
-51 90 -26
-51 91 -26
-52 93 -27
-52 94 -27
-52 95 -27
-52 96 -27
-51 97 -26
-52 104 -27
-55 115 -28
-55 116 -28
-54 117 -27
-53 118 -27
-52 123 -27
-56 124 -28
-52 125 -27
-52 126 -27
-52 127 -27
-56 128 -28
-53 132 -27
-53 133 -27
-53 134 -27
-53 135 -27
-56 136 -28
-56 137 -28
-56 138 -28
-53 156 -27
-53 157 -27
-53 158 -27
-54 164 -27
-54 165 -27
-56 166 -29
-55 167 -28
-55 168 -28
-54 171 -27
-56 172 -29
-56 173 -29
-55 176 -28
-54 177 -27
-56 178 -28
-56 182 -28
-56 183 -28
-56 186 -28
-56 187 -28
-55 197 -28
-56 198 -29
-56 204 -28
-56 206 -28
-54 75 -25
-54 76 -25
-54 77 -25
-52 89 -25
-52 90 -25
-53 93 -25
-54 94 -25
-54 95 -25
-52 96 -25
-52 101 -25
-52 102 -25
-53 104 -25
-51 105 -24
-53 106 -25
-56 115 -27
-55 116 -26
-55 117 -26
-55 118 -26
-55 119 -26
-54 120 -25
-56 121 -27
-53 122 -25
-53 123 -25
-53 127 -25
-53 128 -25
-53 129 -25
-53 130 -25
-53 131 -25
-53 134 -25
-53 135 -25
-53 136 -25
-54 155 -25
-54 156 -25
-54 157 -25
-55 166 -26
-55 167 -26
-57 168 -27
-56 169 -27
-56 170 -27
-55 171 -26
-55 172 -26
-57 173 -27
-55 178 -26
-55 179 -26
-57 180 -27
-56 181 -27
-56 182 -27
-56 183 -27
-56 184 -27
-56 185 -27
-56 195 -27
-56 196 -27
-56 204 -27
-56 206 -27
-55 77 -24
-55 78 -24
-55 79 -24
-53 90 -23
-53 91 -23
-53 92 -23
-53 95 -23
-53 96 -23
-53 97 -23
-56 102 -25
-56 103 -25
-56 104 -25
-53 110 -23
-57 113 -25
-55 114 -24
-57 115 -25
-54 116 -24
-55 117 -24
-55 118 -24
-54 119 -24
-54 120 -24
-53 121 -23
-55 122 -24
-55 123 -24
-55 124 -24
-57 125 -25
-53 126 -23
-53 127 -23
-55 128 -24
-55 129 -24
-53 130 -23
-53 133 -23
-53 134 -23
-53 135 -23
-57 146 -25
-57 147 -25
-56 148 -25
-55 149 -24
-54 150 -24
-54 157 -24
-54 158 -24
-54 159 -24
-55 166 -24
-55 167 -24
-55 168 -24
-55 170 -24
-56 171 -25
-58 172 -25
-58 173 -25
-56 176 -25
-56 177 -25
-54 178 -24
-55 179 -24
-55 180 -24
-57 185 -25
-57 186 -25
-57 187 -25
-56 190 -25
-56 191 -25
-56 192 -25
-56 193 -25
-57 198 -25
-58 204 -25
-57 205 -25
-55 209 -24
-55 210 -24
-54 211 -24
-56 212 -25
-56 213 -25
-53 91 -22
-53 92 -22
-53 94 -22
-53 95 -22
-53 96 -22
-53 97 -22
-53 98 -22
-57 99 -23
-57 100 -23
-53 102 -22
-53 103 -22
-53 105 -22
-54 106 -22
-54 107 -22
-54 108 -22
-55 109 -22
-53 110 -22
-53 111 -22
-53 114 -22
-58 116 -23
-58 117 -23
-58 118 -23
-54 119 -22
-54 120 -22
-58 121 -23
-57 122 -23
-55 123 -22
-54 124 -22
-56 125 -23
-56 126 -23
-56 127 -23
-55 128 -22
-57 129 -23
-54 131 -22
-54 133 -22
-54 134 -22
-58 143 -23
-58 144 -23
-58 148 -23
-58 149 -23
-58 166 -23
-58 167 -23
-59 168 -24
-56 169 -23
-56 170 -23
-58 171 -23
-59 172 -24
-55 177 -22
-57 178 -23
-58 182 -23
-58 183 -23
-58 186 -23
-58 187 -23
-58 198 -23
-58 204 -23
-58 206 -23
-57 209 -23
-57 210 -23
-57 213 -23
-57 214 -23
-56 77 -21
-57 78 -21
-56 79 -21
-54 90 -20
-54 91 -20
-54 92 -20
-54 93 -20
-58 94 -21
-58 95 -21
-58 96 -21
-54 97 -20
-54 98 -20
-58 99 -21
-58 100 -21
-57 101 -21
-54 102 -20
-54 104 -20
-56 105 -21
-54 106 -20
-54 112 -20
-58 113 -21
-57 114 -21
-58 117 -21
-58 118 -21
-54 120 -20
-58 121 -21
-57 122 -21
-55 123 -20
-56 124 -21
-58 125 -21
-55 132 -20
-55 133 -20
-55 134 -20
-55 135 -20
-55 136 -20
-58 146 -22
-58 147 -21
-58 148 -22
-58 149 -21
-56 156 -21
-56 157 -21
-56 159 -21
-56 160 -21
-58 172 -21
-58 173 -21
-57 175 -21
-58 176 -21
-56 177 -21
-58 178 -22
-58 179 -22
-58 180 -21
-57 181 -21
-58 182 -22
-58 183 -22
-58 184 -22
-58 185 -22
-58 186 -22
-58 187 -22
-58 198 -22
-59 204 -22
-58 205 -22
-58 206 -22
-58 209 -21
-58 210 -21
-58 213 -21
-58 214 -21
-57 77 -19
-56 78 -19
-57 79 -19
-54 80 -18
-54 90 -18
-55 91 -19
-54 92 -18
-57 93 -19
-57 94 -19
-57 95 -19
-54 96 -18
-58 98 -20
-58 99 -20
-58 100 -20
-58 101 -20
-57 102 -19
-58 103 -20
-54 104 -18
-55 105 -19
-55 106 -19
-55 107 -19
-55 108 -19
-56 114 -19
-58 115 -20
-54 116 -18
-57 117 -19
-56 118 -19
-54 119 -18
-56 120 -19
-55 121 -19
-58 122 -20
-56 123 -19
-55 124 -19
-55 125 -19
-55 126 -19
-56 127 -19
-56 128 -19
-58 129 -20
-55 130 -19
-55 131 -19
-55 134 -19
-55 135 -19
-56 157 -19
-56 158 -19
-57 159 -19
-59 160 -20
-59 161 -20
-59 167 -20
-59 168 -20
-59 169 -20
-58 171 -20
-58 172 -20
-56 176 -19
-58 177 -20
-57 178 -19
-57 179 -19
-57 180 -19
-59 181 -20
-59 182 -20
-59 183 -20
-59 184 -20
-59 185 -20
-59 186 -20
-58 197 -20
-60 198 -20
-59 204 -20
-59 206 -20
-58 77 -18
-58 78 -18
-58 79 -18
-58 87 -18
-58 88 -18
-58 89 -18
-55 90 -17
-56 91 -17
-55 92 -17
-55 94 -17
-55 95 -17
-55 96 -17
-55 101 -17
-55 102 -17
-54 103 -17
-56 104 -17
-56 105 -17
-56 106 -17
-56 108 -17
-56 109 -17
-59 113 -18
-60 114 -18
-59 116 -18
-58 117 -18
-60 118 -18
-60 120 -18
-59 121 -18
-58 122 -18
-57 123 -17
-58 124 -18
-60 125 -18
-58 126 -18
-57 127 -17
-57 128 -17
-58 129 -18
-57 130 -17
-56 131 -17
-56 132 -17
-56 133 -17
-56 134 -17
-56 135 -17
-57 156 -17
-57 157 -17
-57 158 -17
-60 172 -18
-58 173 -18
-57 174 -17
-59 178 -18
-59 179 -18
-60 182 -18
-60 183 -18
-60 186 -18
-60 197 -18
-60 198 -18
-60 204 -18
-60 206 -18
-59 209 -18
-59 210 -18
-59 211 -18
-59 212 -18
-59 213 -18
-55 75 -15
-54 76 -15
-56 77 -16
-58 78 -16
-58 79 -16
-58 87 -16
-58 88 -16
-57 89 -16
-56 90 -16
-59 91 -16
-57 92 -16
-58 93 -16
-57 94 -16
-56 95 -16
-56 96 -16
-55 101 -15
-59 102 -16
-56 103 -16
-57 104 -16
-59 112 -16
-60 113 -17
-59 115 -16
-59 116 -16
-59 117 -16
-59 119 -16
-58 120 -16
-57 121 -16
-57 122 -16
-58 123 -16
-56 124 -16
-58 125 -16
-56 126 -16
-56 127 -16
-56 130 -16
-56 131 -16
-56 132 -16
-56 133 -16
-56 134 -16
-56 135 -16
-57 156 -16
-57 157 -16
-57 158 -16
-57 159 -16
-60 167 -17
-61 168 -17
-61 169 -17
-57 170 -16
-59 171 -16
-61 172 -17
-57 174 -16
-58 175 -16
-59 176 -16
-59 177 -16
-58 178 -16
-58 179 -16
-58 180 -16
-59 181 -16
-60 186 -17
-60 187 -17
-59 190 -16
-59 191 -16
-59 192 -16
-60 198 -17
-60 199 -17
-60 204 -17
-60 206 -17
-59 210 -16
-59 211 -16
-59 212 -16
-59 213 -16
-56 78 -14
-56 79 -14
-56 80 -14
-59 94 -14
-57 95 -14
-59 96 -14
-56 97 -14
-56 98 -14
-56 99 -14
-56 100 -14
-58 102 -14
-59 103 -14
-59 104 -14
-55 105 -13
-56 106 -14
-56 112 -14
-59 113 -14
-59 114 -14
-60 121 -15
-59 122 -14
-58 124 -14
-59 125 -14
-59 126 -14
-59 128 -14
-59 129 -14
-57 130 -14
-57 134 -14
-57 135 -14
-61 144 -15
-61 145 -15
-59 147 -14
-60 148 -15
-59 149 -14
-58 157 -14
-58 158 -14
-58 159 -14
-61 166 -15
-61 167 -15
-61 168 -15
-59 169 -14
-59 170 -14
-61 171 -15
-62 172 -15
-58 175 -14
-59 176 -14
-60 177 -15
-60 178 -15
-61 179 -15
-60 180 -15
-62 181 -15
-60 182 -15
-61 183 -15
-61 184 -15
-61 185 -15
-61 186 -15
-60 190 -15
-60 191 -15
-60 192 -15
-61 198 -15
-62 204 -15
-60 205 -15
-60 210 -15
-60 211 -15
-60 212 -15
-60 213 -15
-55 57 -12
-55 58 -12
-55 59 -12
-56 78 -12
-56 79 -12
-56 80 -12
-56 83 -12
-56 84 -12
-56 85 -12
-60 87 -13
-59 88 -13
-57 89 -12
-56 90 -12
-56 91 -12
-56 92 -12
-59 93 -13
-59 94 -13
-59 95 -13
-59 96 -13
-60 99 -13
-60 100 -13
-58 101 -12
-57 102 -12
-59 103 -13
-58 104 -12
-57 105 -12
-57 107 -12
-57 108 -12
-57 109 -12
-56 111 -12
-60 112 -13
-61 113 -13
-61 115 -13
-58 116 -12
-61 117 -13
-60 118 -13
-61 119 -13
-61 120 -13
-61 121 -13
-57 125 -12
-57 126 -12
-60 127 -13
-59 128 -13
-60 129 -13
-57 134 -12
-57 135 -12
-61 142 -13
-61 143 -13
-61 144 -13
-61 147 -13
-61 148 -13
-60 149 -13
-58 150 -12
-58 156 -12
-58 157 -12
-58 158 -12
-60 166 -13
-60 167 -13
-62 168 -13
-59 169 -13
-59 170 -13
-61 172 -13
-59 173 -13
-58 174 -12
-58 176 -12
-60 177 -13
-59 178 -13
-59 179 -13
-59 180 -13
-60 181 -13
-61 185 -13
-61 186 -13
-61 198 -13
-61 199 -13
-62 204 -13
-60 205 -13
-60 210 -13
-60 211 -13
-60 212 -13
-60 213 -13
-56 77 -10
-58 78 -11
-59 79 -11
-57 80 -11
-57 81 -11
-56 84 -10
-56 85 -10
-56 86 -10
-56 90 -10
-56 91 -10
-56 92 -10
-59 94 -11
-58 95 -11
-58 96 -11
-56 97 -10
-56 101 -10
-57 102 -11
-60 103 -11
-56 104 -10
-58 105 -11
-60 106 -11
-56 108 -10
-57 109 -11
-61 113 -11
-60 114 -11
-56 119 -10
-57 120 -11
-56 121 -10
-59 122 -11
-60 123 -11
-58 124 -11
-57 126 -11
-57 127 -11
-57 128 -11
-57 129 -11
-57 130 -11
-57 134 -11
-57 135 -11
-58 140 -11
-59 141 -11
-58 142 -11
-61 143 -11
-61 144 -11
-61 145 -11
-61 147 -11
-61 148 -11
-61 149 -11
-58 156 -11
-58 157 -11
-58 158 -11
-58 159 -11
-61 167 -11
-61 168 -11
-60 169 -11
-62 170 -12
-60 171 -11
-60 172 -11
-58 173 -11
-60 174 -11
-59 175 -11
-60 176 -11
-60 177 -11
-61 178 -11
-60 179 -11
-59 180 -11
-61 181 -11
-61 182 -11
-61 183 -11
-61 185 -11
-61 186 -11
-61 198 -11
-61 199 -11
-62 204 -12
-60 205 -11
-60 210 -11
-60 211 -11
-60 212 -11
-60 213 -11
-57 78 -9
-60 79 -9
-58 80 -9
-60 81 -9
-57 87 -9
-57 88 -9
-57 90 -9
-57 91 -9
-57 92 -9
-60 93 -9
-61 94 -9
-59 95 -9
-57 96 -9
-57 97 -9
-57 98 -9
-60 101 -9
-59 102 -9
-62 103 -10
-57 104 -9
-58 105 -9
-60 112 -9
-62 113 -10
-60 114 -9
-59 115 -9
-61 116 -9
-61 117 -9
-60 118 -9
-59 120 -9
-58 121 -9
-61 122 -9
-61 123 -9
-57 124 -9
-61 126 -9
-59 127 -9
-58 128 -9
-58 129 -9
-58 130 -9
-58 134 -9
-58 135 -9
-59 143 -9
-59 144 -9
-59 145 -9
-63 146 -10
-62 147 -10
-62 148 -10
-59 156 -9
-59 157 -9
-59 158 -9
-59 159 -9
-59 160 -9
-60 166 -9
-61 167 -9
-63 168 -10
-62 169 -10
-61 170 -9
-61 171 -9
-63 172 -10
-61 173 -9
-61 174 -9
-60 175 -9
-60 176 -9
-60 177 -9
-62 178 -10
-62 179 -10
-60 180 -9
-63 181 -10
-61 182 -9
-62 183 -10
-62 184 -10
-62 185 -10
-61 186 -9
-63 187 -10
-62 197 -10
-62 198 -10
-63 204 -10
-61 205 -9
-61 210 -9
-61 211 -9
-61 212 -9
-61 213 -9
-57 82 -7
-57 83 -7
-57 84 -7
-57 87 -7
-57 88 -7
-57 89 -7
-57 90 -7
-57 91 -7
-57 92 -7
-57 93 -7
-57 102 -7
-57 103 -7
-57 106 -7
-57 107 -7
-57 108 -7
-58 110 -7
-59 111 -7
-62 113 -8
-62 114 -8
-59 115 -7
-60 116 -8
-61 117 -8
-61 118 -8
-60 119 -8
-60 120 -8
-61 121 -8
-61 122 -8
-61 123 -8
-61 124 -8
-59 125 -7
-60 126 -8
-59 127 -7
-60 128 -8
-61 129 -8
-59 130 -7
-58 136 -7
-58 137 -7
-59 142 -7
-59 143 -7
-59 144 -7
-59 145 -7
-59 146 -7
-60 147 -8
-58 148 -7
-59 149 -7
-59 150 -7
-61 166 -8
-61 167 -8
-61 168 -8
-60 171 -8
-61 172 -8
-60 173 -8
-61 174 -8
-61 175 -8
-59 176 -7
-59 179 -7
-61 180 -8
-61 181 -8
-62 185 -8
-62 186 -8
-62 197 -8
-62 198 -8
-63 204 -8
-61 205 -8
-61 210 -8
-61 211 -8
-61 212 -8
-61 213 -8
-57 81 -5
-57 82 -5
-57 84 -5
-57 85 -5
-57 86 -5
-57 87 -5
-57 88 -5
-57 95 -5
-57 96 -5
-61 97 -6
-59 98 -6
-60 99 -6
-57 100 -5
-59 101 -6
-58 102 -6
-60 103 -6
-61 105 -6
-61 106 -6
-57 108 -5
-57 109 -5
-58 111 -6
-58 112 -6
-62 113 -6
-61 114 -6
-61 115 -6
-61 116 -6
-59 117 -6
-61 118 -6
-61 119 -6
-61 124 -6
-61 125 -6
-59 126 -6
-58 128 -6
-58 129 -6
-58 130 -6
-58 131 -6
-60 132 -6
-62 133 -6
-60 136 -6
-59 137 -6
-60 146 -6
-61 147 -6
-63 148 -6
-59 152 -6
-59 153 -6
-62 169 -6
-63 170 -6
-60 171 -6
-61 172 -6
-62 173 -6
-63 174 -6
-63 178 -6
-62 179 -6
-60 180 -6
-62 182 -6
-62 183 -6
-63 185 -6
-62 186 -6
-63 187 -6
-62 188 -6
-62 198 -6
-63 204 -6
-62 205 -6
-61 211 -6
-61 212 -6
-61 213 -6
-57 89 -4
-57 90 -4
-57 94 -4
-57 95 -4
-60 97 -4
-60 98 -4
-59 100 -4
-61 101 -4
-61 102 -4
-62 103 -4
-61 104 -4
-61 105 -4
-57 106 -4
-57 107 -4
-57 108 -4
-56 111 -4
-58 112 -4
-62 113 -4
-61 114 -4
-61 115 -4
-61 116 -4
-59 117 -4
-61 118 -4
-59 119 -4
-61 121 -4
-61 122 -4
-61 123 -4
-61 124 -4
-60 125 -4
-60 126 -4
-60 127 -4
-58 128 -4
-57 129 -4
-61 130 -4
-60 131 -4
-59 132 -4
-58 133 -4
-58 134 -4
-58 135 -4
-58 136 -4
-62 145 -4
-62 146 -4
-62 147 -4
-62 160 -4
-62 161 -4
-62 162 -4
-60 171 -4
-63 172 -4
-63 173 -4
-63 177 -4
-62 178 -4
-61 179 -4
-62 181 -4
-62 182 -4
-62 183 -4
-62 184 -4
-62 187 -4
-62 198 -4
-61 199 -4
-62 200 -4
-63 201 -4
-63 204 -4
-62 205 -4
-60 210 -4
-59 211 -4
-60 212 -4
-57 86 -2
-57 87 -2
-57 95 -2
-57 96 -2
-60 99 -2
-60 100 -2
-57 102 -2
-56 103 -2
-56 104 -2
-60 105 -2
-60 106 -2
-57 107 -2
-58 108 -2
-57 111 -2
-58 112 -2
-58 113 -2
-59 115 -2
-61 116 -2
-61 117 -2
-59 118 -2
-60 119 -2
-61 120 -2
-57 121 -2
-58 122 -2
-59 123 -2
-61 124 -2
-60 125 -2
-62 126 -2
-62 127 -2
-62 128 -2
-58 132 -2
-58 133 -2
-58 134 -2
-59 135 -2
-61 136 -2
-61 137 -2
-62 146 -2
-62 147 -2
-62 148 -2
-59 151 -2
-59 152 -2
-59 154 -2
-59 155 -2
-59 156 -2
-60 157 -2
-60 158 -2
-62 159 -2
-62 160 -2
-60 171 -2
-61 172 -2
-63 173 -2
-61 174 -2
-59 175 -2
-59 178 -2
-61 179 -2
-62 180 -2
-61 191 -2
-61 192 -2
-61 193 -2
-61 197 -2
-61 198 -2
-63 201 -2
-61 202 -2
-63 204 -2
-62 205 -2
-60 209 -2
-60 210 -2
-60 212 -2
-60 213 -2
-56 78 0
-57 79 0
-57 80 0
-59 81 -1
-59 82 -1
-57 89 0
-57 90 0
-57 96 0
-57 97 0
-57 98 0
-58 99 0
-57 100 0
-60 101 -1
-60 102 -1
-58 103 0
-58 104 0
-59 105 -1
-58 106 0
-60 108 -1
-60 109 -1
-57 110 0
-57 111 0
-59 112 -1
-60 113 -1
-59 114 -1
-58 115 0
-62 117 -1
-61 118 -1
-61 119 -1
-57 120 0
-61 121 -1
-59 122 -1
-61 123 -1
-61 124 -1
-61 125 -1
-59 126 -1
-58 127 0
-58 128 0
-60 131 -1
-59 132 -1
-62 133 -1
-58 134 0
-58 135 0
-61 136 -1
-61 137 -1
-61 138 -1
-59 154 -1
-59 155 -1
-59 158 -1
-60 159 -1
-62 160 -1
-62 161 -1
-62 162 -1
-59 163 -1
-59 164 -1
-59 165 -1
-60 172 -1
-63 173 -1
-63 174 -1
-63 176 -1
-63 177 -1
-61 178 -1
-60 179 -1
-60 180 -1
-61 192 -1
-61 193 -1
-61 194 -1
-62 197 -1
-61 198 -1
-60 200 -1
-62 201 -1
-63 202 -1
-63 203 -1
-62 204 -1
-62 205 -1
-60 209 -1
-60 210 -1
-60 211 -1
-60 212 -1
-59 76 0
-59 77 0
-59 78 0
-60 87 0
-60 88 0
-58 89 0
-57 90 0
-57 97 0
-57 98 0
-57 102 0
-57 103 0
-57 104 0
-61 105 0
-60 106 0
-60 107 0
-57 109 0
-57 110 0
-57 111 0
-59 112 0
-61 113 0
-59 114 0
-58 115 0
-61 116 0
-62 117 0
-62 118 0
-62 120 0
-59 121 0
-60 122 0
-61 123 0
-59 124 0
-60 125 0
-62 126 0
-61 127 0
-62 128 0
-60 129 0
-60 130 0
-58 131 0
-58 132 0
-58 133 0
-58 134 0
-59 135 0
-61 136 0
-61 138 0
-61 139 0
-59 156 0
-59 157 0
-59 158 0
-60 159 0
-62 160 0
-62 161 0
-62 162 0
-59 163 0
-60 164 0
-59 165 0
-60 172 0
-61 173 0
-63 174 0
-63 177 0
-63 178 0
-61 179 0
-60 180 0
-62 183 0
-62 184 0
-62 187 0
-62 188 0
-61 191 0
-61 192 0
-62 193 0
-60 194 0
-61 195 0
-61 197 0
-61 198 0
-63 199 0
-61 200 0
-63 204 0
-62 205 0
-60 209 0
-60 210 0
-60 211 0
-60 212 0
-59 76 2
-59 77 2
-58 78 2
-57 79 2
-56 80 2
-59 87 2
-58 88 2
-61 89 2
-57 98 2
-57 99 2
-57 100 2
-59 101 2
-61 102 2
-56 103 2
-57 104 2
-60 105 2
-60 106 2
-57 107 2
-57 109 2
-57 110 2
-57 111 2
-60 112 2
-61 113 2
-59 114 2
-58 115 2
-61 116 2
-61 117 2
-61 118 2
-61 119 2
-59 120 2
-59 121 2
-60 122 2
-62 123 2
-59 124 2
-61 125 2
-61 126 2
-61 127 2
-60 128 2
-58 130 2
-58 131 2
-58 132 2
-58 133 2
-58 134 2
-60 135 2
-58 136 2
-61 138 2
-61 139 2
-61 140 2
-61 141 2
-61 142 2
-59 152 2
-59 153 2
-59 155 2
-59 156 2
-59 157 2
-59 158 2
-62 159 2
-62 160 2
-62 161 2
-62 162 2
-59 163 2
-60 164 2
-59 165 2
-60 171 2
-61 172 2
-63 173 2
-61 177 2
-61 178 2
-59 179 2
-60 180 2
-60 181 2
-62 198 2
-63 204 2
-62 205 2
-60 209 2
-60 210 2
-60 211 2
-60 212 2
-60 213 2
-59 76 4
-59 77 4
-57 78 4
-59 79 4
-57 80 4
-57 86 4
-57 87 4
-57 95 4
-57 96 4
-60 100 4
-59 101 4
-59 102 4
-56 103 3
-61 104 4
-61 105 4
-61 106 4
-57 107 4
-57 111 4
-58 112 4
-58 113 4
-60 114 4
-62 115 4
-59 116 4
-61 117 4
-61 118 4
-61 119 4
-58 120 4
-57 121 4
-59 127 4
-60 128 4
-57 129 4
-57 131 4
-58 133 4
-60 134 4
-59 135 4
-61 136 4
-61 137 4
-62 144 4
-62 145 4
-62 146 4
-62 147 4
-59 152 4
-59 153 4
-59 154 4
-60 171 4
-61 172 4
-63 173 4
-61 179 4
-61 180 4
-63 181 4
-62 182 4
-62 183 4
-62 184 4
-62 185 4
-62 186 4
-62 187 4
-62 188 4
-61 191 4
-61 192 4
-61 193 4
-62 198 4
-63 204 4
-61 205 4
-60 209 4
-60 210 4
-59 75 5
-57 76 5
-59 77 5
-56 78 5
-57 83 5
-57 84 5
-57 87 5
-57 88 5
-57 89 5
-57 90 5
-57 91 5
-57 94 5
-57 95 5
-60 97 5
-60 98 5
-60 99 5
-61 101 6
-60 102 5
-61 103 6
-60 104 5
-60 105 5
-56 110 5
-58 111 5
-62 112 6
-61 113 6
-58 114 5
-59 115 5
-61 116 6
-58 117 5
-59 118 5
-60 119 5
-60 120 5
-61 121 6
-57 127 5
-58 128 5
-60 129 5
-59 130 5
-58 131 5
-58 136 5
-58 137 5
-59 144 5
-59 145 5
-61 146 6
-60 147 5
-63 148 6
-59 149 5
-60 150 5
-59 151 5
-59 155 5
-59 156 5
-59 157 5
-61 166 6
-61 167 6
-61 168 6
-61 169 6
-60 170 5
-60 171 5
-63 172 6
-59 178 5
-60 179 5
-62 180 6
-62 181 6
-62 184 6
-62 185 6
-62 186 6
-62 187 6
-61 189 6
-61 190 6
-62 198 6
-63 204 6
-61 205 6
-59 208 5
-61 209 6
-61 210 6
-61 211 6
-61 212 6
-58 75 7
-57 76 7
-57 77 7
-57 80 7
-57 81 7
-57 82 7
-57 84 7
-57 86 7
-57 87 7
-57 88 7
-57 95 7
-57 96 7
-57 97 7
-57 99 7
-57 102 7
-57 103 7
-56 107 7
-58 108 7
-59 109 7
-60 113 7
-61 114 7
-57 115 7
-60 124 7
-59 125 7
-58 126 7
-58 134 7
-58 135 7
-62 138 7
-62 139 7
-61 140 7
-60 141 7
-59 142 7
-59 143 7
-59 144 7
-59 146 7
-59 147 7
-59 148 7
-59 149 7
-59 150 7
-59 156 7
-59 157 7
-59 158 7
-59 159 7
-62 160 7
-62 161 7
-62 162 7
-60 166 7
-63 167 8
-62 168 7
-61 169 7
-61 170 7
-62 171 7
-63 172 8
-63 174 8
-64 175 8
-62 176 7
-63 177 8
-61 178 7
-60 179 7
-60 180 7
-61 184 7
-61 185 7
-61 186 7
-63 187 8
-62 188 7
-62 192 7
-62 193 7
-62 194 7
-62 198 7
-62 199 7
-63 204 8
-61 205 7
-61 209 7
-61 210 7
-61 211 7
-61 212 7
-57 79 8
-57 80 8
-57 81 8
-57 82 8
-57 83 8
-57 84 8
-57 85 8
-57 89 8
-57 90 8
-57 93 8
-58 94 9
-60 95 9
-60 96 9
-57 101 8
-60 102 9
-61 103 9
-61 105 9
-61 106 9
-57 107 8
-58 108 9
-56 109 8
-57 110 8
-58 111 9
-60 112 9
-61 113 9
-57 116 8
-61 117 9
-60 118 9
-60 119 9
-61 120 9
-60 121 9
-58 122 9
-60 123 9
-59 124 9
-60 125 9
-58 126 9
-60 127 9
-62 128 9
-62 129 9
-58 134 9
-58 135 9
-59 140 9
-59 141 9
-59 142 9
-59 144 9
-59 145 9
-59 146 9
-59 148 9
-59 149 9
-59 150 9
-59 156 9
-59 157 9
-61 159 9
-59 160 9
-62 162 9
-61 163 9
-59 164 9
-59 165 9
-61 166 9
-63 167 9
-61 168 9
-61 169 9
-63 170 9
-62 171 9
-61 172 9
-59 173 9
-63 174 9
-64 175 10
-62 176 9
-60 177 9
-62 192 9
-62 193 9
-62 194 9
-62 196 9
-62 197 9
-62 198 9
-62 205 9
-62 206 9
-59 208 9
-59 210 9
-61 211 9
-61 212 9
-61 213 9
-56 56 10
-56 57 10
-56 59 10
-56 60 10
-57 79 10
-57 80 10
-57 81 10
-57 82 10
-57 83 10
-57 84 10
-57 85 10
-57 86 10
-57 89 10
-57 90 10
-57 92 10
-57 93 10
-57 101 10
-57 102 10
-58 104 10
-58 105 10
-60 106 11
-57 107 10
-58 108 10
-58 111 10
-59 113 11
-60 114 11
-60 121 11
-59 122 11
-58 123 10
-58 124 10
-58 125 10
-59 126 11
-58 127 10
-59 128 11
-58 134 10
-58 135 10
-61 139 11
-61 140 11
-61 141 11
-60 142 11
-58 143 10
-61 144 11
-59 145 11
-58 146 10
-58 147 10
-58 148 10
-58 149 10
-58 150 10
-58 156 10
-58 157 10
-58 158 10
-58 159 10
-62 160 11
-61 161 11
-61 162 11
-59 164 11
-60 165 11
-61 166 11
-59 167 11
-60 168 11
-60 169 11
-58 170 10
-62 172 11
-63 173 11
-62 174 11
-62 175 11
-62 176 11
-62 177 11
-62 178 11
-62 180 11
-62 181 11
-61 197 11
-61 198 11
-61 204 11
-61 206 11
-60 209 11
-60 210 11
-60 211 11
-60 212 11
-55 56 12
-55 57 12
-55 58 12
-55 73 12
-55 74 12
-55 75 12
-57 79 12
-59 80 12
-59 81 12
-59 82 12
-57 83 12
-56 84 12
-57 87 12
-59 88 12
-59 89 12
-57 90 12
-56 91 12
-56 92 12
-57 93 12
-59 94 12
-60 95 13
-60 98 13
-58 99 12
-57 100 12
-60 101 13
-60 102 13
-60 103 13
-56 107 12
-56 108 12
-58 109 12
-58 110 12
-57 111 12
-57 112 12
-61 113 13
-60 114 13
-56 117 12
-59 122 12
-58 123 12
-59 124 12
-61 125 13
-57 126 12
-57 127 12
-58 134 12
-58 135 12
-59 136 12
-61 137 13
-61 138 13
-58 141 12
-58 142 12
-58 143 12
-58 156 12
-58 157 12
-60 159 13
-59 160 12
-61 161 13
-61 162 13
-59 164 12
-60 165 13
-62 166 13
-60 167 13
-59 168 12
-60 169 13
-61 172 13
-62 173 13
-62 174 13
-60 175 13
-59 176 12
-61 177 13
-58 178 12
-62 179 13
-61 180 13
-62 183 13
-62 184 13
-61 185 13
-61 186 13
-60 187 13
-61 198 13
-61 199 13
-62 205 13
-60 206 13
-60 210 13
-60 211 13
-60 212 13
-59 76 14
-59 77 14
-59 78 14
-57 79 14
-56 80 13
-56 81 13
-59 87 14
-58 88 14
-57 89 14
-59 90 14
-59 91 14
-59 92 14
-59 93 14
-60 94 14
-56 95 13
-56 96 13
-56 97 13
-56 98 13
-60 99 14
-60 100 14
-60 101 14
-56 102 13
-55 104 13
-57 105 14
-57 108 14
-58 109 14
-57 110 14
-57 111 14
-60 112 14
-61 113 15
-59 117 14
-59 118 14
-59 119 14
-59 120 14
-57 121 14
-61 122 15
-59 123 14
-59 124 14
-57 125 14
-57 126 14
-58 127 14
-58 128 14
-61 129 15
-56 133 13
-60 135 14
-61 136 15
-59 139 14
-60 140 14
-59 141 14
-58 148 14
-58 149 14
-58 150 14
-58 154 14
-58 155 14
-60 158 14
-59 159 14
-61 162 15
-61 163 15
-60 164 14
-61 165 15
-60 166 14
-59 167 14
-60 168 14
-60 169 14
-59 170 14
-58 171 14
-62 172 15
-62 173 15
-62 174 15
-61 175 15
-62 176 15
-61 177 15
-61 179 15
-60 180 14
-62 181 15
-62 183 15
-63 184 15
-62 185 15
-60 186 14
-61 198 15
-62 199 15
-61 204 15
-61 205 15
-58 76 16
-57 77 15
-57 78 15
-56 79 15
-54 80 15
-55 81 15
-55 82 15
-58 84 16
-58 85 16
-57 86 15
-57 87 15
-57 88 15
-58 89 16
-58 90 16
-57 91 15
-55 92 15
-55 93 15
-55 94 15
-55 95 15
-57 96 15
-58 97 16
-58 98 16
-58 99 16
-55 100 15
-57 101 15
-56 102 15
-59 103 16
-56 104 15
-57 105 15
-55 106 15
-55 112 15
-58 113 16
-58 114 16
-59 118 16
-57 119 15
-56 121 15
-58 122 16
-60 123 16
-56 125 15
-56 126 15
-56 127 15
-60 129 16
-57 130 15
-60 131 16
-61 132 17
-60 133 16
-58 134 16
-57 135 15
-60 136 16
-60 137 16
-60 138 16
-60 139 16
-57 156 15
-57 157 15
-57 158 15
-58 159 16
-60 160 16
-59 162 16
-59 163 16
-57 164 15
-57 166 15
-58 167 16
-59 168 16
-60 171 16
-58 172 16
-59 173 16
-58 174 16
-58 176 16
-61 177 17
-61 178 17
-57 179 15
-58 180 16
-62 181 17
-61 182 17
-61 183 17
-61 184 17
-60 186 16
-60 187 16
-60 188 16
-59 197 16
-59 198 16
-58 199 16
-60 200 16
-60 205 16
-58 75 17
-58 76 17
-55 77 17
-57 78 17
-56 79 17
-55 80 17
-58 87 17
-58 88 17
-57 89 17
-57 90 17
-59 91 18
-59 92 18
-59 93 18
-60 94 18
-59 95 18
-59 96 18
-55 97 17
-58 98 17
-59 99 18
-55 100 17
-59 102 18
-59 103 18
-57 104 17
-54 105 16
-55 106 17
-58 113 17
-59 114 18
-58 116 17
-60 117 18
-57 118 17
-56 119 17
-56 120 17
-56 123 17
-59 124 18
-58 125 17
-56 126 17
-60 128 18
-60 129 18
-60 130 18
-60 131 18
-60 132 18
-56 133 17
-56 135 17
-56 136 17
-60 137 18
-60 138 18
-60 145 18
-60 146 18
-60 147 18
-57 153 17
-57 154 17
-57 157 17
-58 158 17
-60 159 18
-60 162 18
-59 163 18
-59 164 18
-59 165 18
-58 166 17
-59 167 18
-59 168 18
-58 169 17
-58 170 17
-59 171 18
-61 172 18
-60 173 18
-58 176 17
-57 177 17
-57 179 17
-58 180 17
-61 181 18
-61 182 18
-60 198 18
-60 199 18
-60 205 18
-60 206 18
-54 74 18
-56 75 19
-55 76 18
-54 77 18
-54 78 18
-57 79 19
-54 80 18
-54 81 18
-57 87 19
-57 88 19
-57 89 19
-55 90 18
-54 91 18
-54 92 18
-54 93 18
-55 98 18
-58 99 19
-58 100 19
-58 101 19
-58 102 19
-58 103 19
-56 104 19
-54 105 18
-57 113 19
-58 114 19
-57 115 19
-59 117 20
-56 118 19
-58 119 19
-59 120 20
-56 121 19
-57 122 19
-57 123 19
-59 124 20
-58 125 19
-57 126 19
-55 127 18
-59 128 20
-57 129 19
-56 130 19
-59 131 20
-60 132 20
-58 133 19
-59 134 20
-59 135 20
-59 136 20
-58 137 19
-57 138 19
-59 154 20
-59 155 20
-58 156 19
-57 157 19
-56 158 19
-59 159 20
-58 163 19
-57 164 19
-58 165 19
-58 166 19
-60 167 20
-59 168 20
-57 169 19
-58 170 19
-57 171 19
-59 172 20
-58 173 19
-57 174 19
-58 176 19
-59 177 20
-58 178 19
-59 179 20
-58 180 19
-60 181 20
-59 197 20
-58 199 19
-57 200 19
-59 201 20
-59 204 20
-59 205 20
-59 206 20
-54 73 20
-54 74 20
-55 75 20
-56 76 20
-56 77 20
-55 78 20
-55 79 20
-57 84 21
-57 85 21
-57 86 21
-57 87 21
-56 88 20
-55 89 20
-56 90 20
-54 95 20
-54 96 20
-55 98 20
-55 99 20
-56 100 20
-59 101 21
-58 102 21
-58 103 21
-55 104 20
-55 105 20
-55 106 20
-55 108 20
-55 109 20
-55 110 20
-56 112 20
-58 113 21
-58 114 21
-57 115 21
-56 116 20
-57 117 21
-58 118 21
-55 119 20
-55 120 20
-55 121 20
-57 123 21
-57 124 21
-59 125 21
-55 127 20
-55 128 20
-55 131 20
-54 132 20
-56 133 20
-56 137 20
-56 138 20
-59 145 21
-59 146 21
-59 147 21
-59 157 21
-59 158 21
-59 163 21
-58 164 21
-58 165 21
-57 166 21
-59 167 22
-59 168 21
-59 169 21
-58 171 21
-59 172 22
-56 173 20
-57 174 21
-56 175 20
-59 177 22
-59 178 21
-59 179 21
-58 180 21
-59 181 22
-59 183 22
-59 184 22
-60 185 22
-58 197 21
-58 198 21
-57 199 21
-59 200 22
-59 201 21
-59 205 21
-59 206 21
-53 71 21
-53 72 21
-56 74 22
-54 75 22
-56 76 22
-56 77 22
-56 78 22
-56 79 22
-56 85 22
-56 86 22
-56 87 22
-53 88 21
-53 89 21
-53 95 21
-53 96 21
-55 97 22
-53 98 21
-57 101 23
-58 102 23
-58 103 23
-56 113 22
-55 114 22
-54 115 22
-56 117 22
-54 118 22
-54 119 22
-58 125 23
-58 126 23
-58 127 23
-56 128 22
-55 129 22
-56 130 22
-54 133 22
-55 136 22
-55 137 22
-58 145 23
-58 146 23
-58 147 23
-58 148 23
-58 154 23
-58 155 23
-58 156 23
-58 157 23
-58 158 23
-58 161 23
-58 162 23
-56 163 22
-57 164 23
-56 165 22
-56 166 22
-55 167 22
-56 168 22
-56 170 22
-59 171 24
-57 172 23
-56 173 22
-55 174 22
-58 179 23
-57 180 23
-59 184 24
-60 185 24
-57 186 23
-57 187 23
-59 199 24
-57 200 23
-58 205 23
-58 206 23
-55 76 24
-55 77 24
-55 78 24
-53 83 23
-53 84 23
-53 85 23
-53 86 23
-56 88 24
-56 89 24
-55 90 24
-53 92 23
-54 93 23
-52 94 22
-54 95 23
-57 101 25
-57 102 25
-57 103 25
-54 105 24
-57 106 25
-55 107 24
-56 108 24
-55 109 24
-54 111 23
-55 112 24
-57 113 25
-57 114 25
-56 115 24
-56 116 24
-57 117 25
-57 118 25
-54 119 23
-57 120 25
-54 121 24
-54 122 24
-55 123 24
-55 124 24
-54 125 24
-57 126 25
-57 128 25
-57 129 25
-55 130 24
-55 135 24
-54 136 24
-58 137 25
-57 138 25
-57 139 25
-57 145 25
-57 146 25
-56 147 24
-55 148 24
-58 149 25
-56 150 24
-55 151 24
-57 153 25
-58 154 25
-57 155 25
-55 156 24
-57 159 25
-57 160 25
-56 161 24
-55 164 24
-55 165 24
-58 166 25
-57 167 25
-57 168 25
-58 170 25
-59 171 26
-58 173 25
-57 174 25
-57 175 25
-58 176 25
-58 177 25
-58 178 25
-55 179 24
-55 180 24
-56 191 24
-59 192 26
-56 193 24
-58 194 25
-58 198 25
-57 199 25
-56 202 24
-56 204 24
-57 205 25
-57 206 25
-53 79 25
-55 80 26
-53 81 25
-53 87 25
-53 88 25
-52 90 24
-52 93 24
-53 98 25
-54 99 25
-56 100 26
-56 101 26
-55 102 26
-52 103 24
-56 105 26
-56 106 26
-53 107 25
-56 109 26
-56 110 26
-53 111 25
-56 112 26
-57 113 27
-55 114 26
-54 115 25
-54 116 25
-56 117 26
-56 118 26
-56 119 26
-56 120 26
-56 121 26
-55 122 26
-56 123 26
-55 124 26
-57 126 27
-56 127 26
-57 128 27
-57 129 27
-57 130 27
-54 134 25
-54 135 25
-57 136 27
-56 137 26
-56 139 26
-56 140 26
-56 147 26
-56 148 26
-56 149 26
-55 153 26
-55 154 26
-55 158 26
-55 159 26
-55 165 26
-55 166 26
-58 167 27
-58 168 27
-58 169 27
-57 170 27
-56 171 26
-56 172 26
-57 173 27
-57 174 27
-56 176 26
-56 177 26
-55 178 26
-55 179 26
-57 182 27
-57 183 27
-57 184 27
-57 185 27
-57 186 27
-57 187 27
-57 198 27
-56 199 26
-57 202 27
-57 203 27
-58 204 27
-57 205 27
-57 206 27
-51 63 26
-51 64 26
-51 65 26
-54 77 27
-50 78 25
-53 79 27
-51 80 26
-52 85 26
-52 86 26
-56 95 28
-56 96 28
-54 97 27
-55 98 28
-55 99 28
-55 100 28
-52 101 26
-53 102 27
-52 103 26
-54 104 27
-52 105 26
-52 106 26
-52 108 26
-52 109 26
-52 110 26
-56 111 28
-57 112 29
-52 113 26
-52 114 26
-53 115 27
-56 116 28
-56 117 28
-56 119 28
-55 120 28
-53 121 27
-52 122 26
-56 126 28
-56 127 28
-54 128 27
-53 132 27
-53 133 27
-55 134 28
-54 135 27
-55 136 28
-56 140 28
-56 141 28
-54 153 27
-57 154 29
-57 155 29
-57 156 29
-55 158 28
-54 159 27
-57 160 29
-57 164 29
-57 165 29
-54 166 27
-53 167 27
-55 168 28
-57 169 29
-57 170 29
-57 171 29
-57 172 29
-54 173 27
-56 174 28
-57 175 29
-57 176 29
-57 177 29
-56 178 28
-55 181 28
-57 183 29
-57 184 29
-56 185 28
-55 186 28
-56 187 28
-55 188 28
-57 191 29
-57 192 29
-57 196 29
-57 198 29
-57 199 29
-56 203 28
-57 204 29
-57 205 29
-57 206 29
-55 209 28
-55 210 28
-55 211 28
-50 62 27
-50 63 27
-50 64 27
-53 74 29
-52 75 28
-51 76 28
-52 78 28
-50 79 27
-54 80 29
-51 85 28
-51 86 28
-51 96 28
-51 97 28
-55 100 30
-55 101 30
-55 102 30
-51 103 28
-52 104 28
-52 105 28
-55 114 30
-53 115 29
-54 116 29
-51 120 28
-55 128 30
-55 129 30
-53 130 29
-53 131 29
-54 132 29
-51 133 28
-52 134 28
-51 135 28
-52 136 28
-55 139 30
-55 140 30
-56 146 30
-56 147 30
-56 148 30
-53 152 29
-53 153 29
-53 155 29
-53 156 29
-56 158 30
-56 159 30
-56 161 30
-56 162 30
-53 163 29
-53 164 29
-55 166 30
-54 167 29
-54 168 29
-56 171 30
-54 172 29
-54 173 29
-54 174 29
-54 175 29
-55 176 30
-55 177 30
-56 178 30
-55 179 30
-54 180 29
-56 182 30
-56 183 30
-57 184 31
-55 185 30
-55 186 30
-55 187 30
-56 191 30
-57 192 31
-55 193 30
-57 197 31
-57 199 31
-57 205 31
-56 206 30
-52 73 30
-52 74 30
-50 76 29
-49 77 28
-52 78 30
-53 79 31
-53 80 31
-52 81 30
-53 82 31
-53 83 31
-52 84 30
-51 85 30
-50 86 29
-50 89 29
-50 90 29
-50 91 29
-50 96 29
-50 97 29
-54 101 31
-54 102 31
-54 103 31
-54 104 31
-50 105 29
-50 106 29
-51 107 30
-51 108 30
-50 111 29
-54 113 31
-53 114 31
-54 117 31
-54 118 31
-54 119 31
-50 124 29
-54 128 31
-54 129 31
-53 130 31
-53 132 31
-52 133 30
-53 134 31
-51 135 30
-53 136 31
-54 137 31
-51 138 30
-53 146 31
-55 147 32
-53 148 31
-56 155 32
-55 156 32
-55 157 32
-55 158 32
-55 159 32
-54 163 31
-54 164 31
-52 166 30
-52 167 30
-55 171 32
-54 172 31
-53 173 31
-55 174 32
-55 175 32
-56 176 32
-56 177 32
-53 178 31
-53 179 31
-55 182 32
-55 183 32
-55 184 32
-55 185 32
-55 186 32
-55 187 32
-55 191 32
-56 192 32
-55 193 32
-55 197 32
-54 204 31
-56 205 32
-55 206 32
-49 58 30
-49 59 30
