# .PCD v.5 - Point Cloud Data file format
VERSION .5
FIELDS x y z
SIZE 4 4 4
TYPE F F F
COUNT 1 1 1
WIDTH 4174
HEIGHT 1
POINTS 4174
DATA ascii
-25 131 -40
-28 132 -46
-28 133 -46
-26 134 -42
-29 135 -48
-28 136 -46
-26 137 -43
-17 138 -28
-29 139 -47
-28 140 -46
-25 141 -40
-26 142 -42
-30 143 -50
-29 144 -47
-29 145 -47
-31 146 -51
-29 147 -48
-30 148 -50
-30 149 -49
-31 152 -51
-31 153 -51
-20 155 -33
-31 159 -51
-32 160 -52
-30 161 -50
-31 163 -51
-32 165 -53
-32 166 -52
-32 170 -52
-31 171 -51
-31 173 -51
-31 174 -51
-30 175 -50
-31 176 -51
-30 177 -49
-30 178 -49
-30 179 -49
-30 180 -49
-29 181 -48
-29 182 -48
-29 183 -47
-28 184 -46
-28 185 -46
-26 190 -42
-26 191 -42
-26 192 -42
-26 193 -42
-26 194 -43
-27 195 -44
-26 196 -43
-31 210 -51
-31 211 -51
-31 212 -51
-31 213 -51
-29 98 -44
-29 99 -44
-29 101 -45
-29 102 -45
-27 103 -42
-30 104 -46
-30 105 -46
-29 106 -44
-29 107 -44
-27 108 -42
-29 109 -44
-30 111 -46
-29 112 -45
-27 113 -42
-27 114 -41
-28 115 -43
-26 116 -41
-27 118 -41
-27 119 -41
-27 120 -42
-29 121 -45
-26 122 -41
-29 123 -45
-29 124 -44
-27 125 -42
-27 126 -41
-13 127 -20
-25 128 -39
-28 129 -43
-27 130 -42
-25 131 -39
-25 132 -38
-26 133 -41
-27 134 -41
-30 135 -46
-29 136 -45
-29 137 -45
-27 138 -42
-28 139 -43
-29 140 -44
-29 141 -45
-27 142 -41
-26 143 -40
-16 144 -25
-31 145 -48
-31 146 -47
-32 147 -49
-33 148 -51
-31 149 -48
-31 150 -48
-32 152 -50
-32 153 -49
-29 154 -45
-30 155 -46
-22 156 -34
-32 157 -49
-32 159 -49
-32 160 -49
-33 165 -51
-33 166 -51
-33 167 -51
-33 169 -51
-33 170 -51
-32 173 -49
-31 174 -48
-32 175 -50
-32 176 -50
-31 177 -48
-31 178 -47
-31 179 -48
-31 180 -48
-31 181 -47
-30 182 -46
-30 183 -46
-30 184 -46
-30 185 -46
-27 190 -41
-27 191 -41
-27 195 -41
-33 211 -51
-33 212 -51
-33 213 -51
-30 98 -43
-30 99 -43
-32 101 -46
-30 102 -44
-30 103 -44
-32 104 -46
-31 105 -45
-30 106 -43
-29 107 -41
-30 108 -44
-29 109 -41
-29 110 -41
-30 111 -44
-29 114 -41
-29 115 -41
-27 116 -40
-28 118 -41
-28 119 -41
-30 121 -44
-31 122 -45
-30 123 -43
-30 124 -43
-28 125 -41
-29 126 -42
-25 127 -36
-13 128 -19
-29 129 -41
-27 130 -40
-27 131 -39
-27 132 -40
-27 133 -40
-16 134 -23
-20 135 -29
-20 136 -29
-32 137 -46
-14 138 -20
-28 139 -41
-33 140 -47
-30 141 -44
-33 143 -48
-33 144 -48
-31 145 -45
-34 146 -49
-31 147 -45
-34 148 -49
-32 149 -46
-33 151 -47
-34 152 -49
-34 153 -50
-34 155 -49
-34 156 -49
-34 157 -49
-32 158 -46
-34 159 -50
-35 160 -50
-34 161 -50
-34 164 -50
-35 165 -51
-35 166 -50
-35 169 -50
-34 170 -50
-34 173 -50
-34 174 -49
-33 175 -48
-34 176 -49
-33 177 -48
-33 178 -48
-33 179 -47
-33 180 -47
-32 181 -46
-31 182 -45
-31 183 -45
-31 184 -45
-30 185 -44
-28 190 -41
-28 191 -41
-28 192 -41
-28 193 -41
-28 195 -41
-29 196 -41
-34 211 -50
-34 212 -50
-34 213 -50
-31 98 -42
-31 99 -42
-33 101 -45
-34 102 -46
-32 103 -44
-32 104 -43
-32 105 -44
-31 106 -42
-31 107 -42
-32 108 -43
-30 109 -41
-30 110 -41
-32 112 -44
-30 113 -41
-29 114 -40
-29 115 -40
-29 116 -39
-31 118 -42
-30 119 -41
-32 120 -43
-32 121 -43
-32 123 -43
-31 124 -42
-29 125 -40
-30 126 -41
-32 127 -44
-29 128 -39
-31 129 -42
-30 130 -41
-27 131 -37
-29 132 -39
-30 133 -41
-29 134 -40
-32 135 -43
-32 136 -43
-32 137 -44
-16 138 -21
-32 139 -44
-32 140 -43
-32 141 -43
-31 142 -42
-31 143 -42
-32 144 -44
-32 145 -43
-24 146 -33
-33 147 -45
-33 148 -45
-33 149 -45
-33 151 -45
-36 152 -49
-36 153 -49
-33 154 -45
-36 155 -49
-35 156 -48
-35 157 -48
-36 159 -49
-36 160 -49
-36 161 -49
-36 163 -49
-37 164 -50
-36 165 -49
-36 168 -49
-36 169 -49
-36 170 -49
-36 173 -49
-35 174 -48
-34 175 -46
-35 176 -47
-35 177 -47
-35 178 -47
-34 179 -46
-33 180 -45
-33 181 -45
-33 182 -45
-32 183 -44
-32 184 -44
-32 185 -43
-29 190 -40
-29 191 -40
-29 192 -40
-29 193 -40
-30 195 -41
-30 196 -41
-36 211 -49
-36 212 -49
-36 213 -49
-32 98 -41
-32 99 -41
-33 102 -43
-33 103 -43
-33 104 -42
-33 105 -43
-33 106 -43
-33 107 -43
-33 108 -42
-33 109 -42
-32 110 -40
-32 111 -41
-33 112 -43
-33 113 -42
-30 114 -38
-29 115 -37
-29 116 -37
-32 121 -41
-29 122 -36
-22 123 -29
-28 124 -36
-33 125 -42
-32 126 -41
-32 127 -41
-30 128 -38
-30 129 -39
-30 130 -38
-24 131 -31
-29 132 -36
-27 133 -35
-30 134 -39
-25 135 -32
-33 136 -42
-33 137 -43
-35 138 -44
-31 139 -40
-33 140 -42
-33 141 -43
-35 142 -45
-34 143 -44
-34 144 -44
-33 145 -43
-35 146 -45
-35 147 -45
-37 148 -47
-34 149 -44
-36 150 -46
-35 151 -45
-37 152 -47
-37 153 -47
-35 154 -44
-36 155 -46
-37 156 -47
-36 157 -46
-35 158 -44
-38 159 -48
-38 160 -48
-36 161 -46
-37 163 -47
-38 164 -49
-38 165 -48
-37 166 -47
-38 169 -48
-37 170 -47
-37 173 -47
-37 174 -47
-36 175 -46
-37 176 -47
-36 177 -46
-35 178 -45
-35 179 -45
-34 180 -44
-34 181 -44
-33 182 -43
-34 183 -44
-32 184 -41
-33 185 -42
-30 190 -39
-30 191 -39
-30 192 -39
-30 193 -39
-31 194 -40
-31 195 -40
-31 196 -40
-31 197 -40
-33 99 -40
-33 100 -40
-36 102 -43
-33 103 -40
-33 104 -39
-36 105 -43
-33 106 -39
-33 107 -39
-34 108 -41
-32 109 -39
-31 110 -38
-33 112 -40
-31 114 -37
-35 116 -42
-34 117 -41
-31 120 -37
-34 121 -41
-35 122 -42
-33 123 -40
-33 124 -40
-32 125 -39
-31 126 -38
-30 127 -36
-30 128 -36
-31 129 -37
-31 130 -37
-34 131 -41
-32 132 -39
-29 133 -35
-31 134 -38
-25 135 -30
-35 136 -42
-35 137 -42
-34 138 -41
-32 139 -39
-33 140 -40
-33 141 -40
-28 142 -33
-36 143 -43
-35 144 -43
-35 145 -43
-38 147 -46
-36 148 -43
-36 149 -43
-37 150 -45
-37 151 -44
-37 152 -44
-37 153 -44
-38 155 -46
-37 156 -45
-37 157 -45
-36 158 -43
-39 159 -46
-40 160 -48
-37 161 -44
-39 162 -46
-40 163 -48
-39 164 -47
-39 165 -46
-39 166 -46
-39 167 -47
-39 170 -47
-39 171 -46
-39 173 -46
-38 174 -46
-37 175 -45
-37 176 -45
-37 177 -45
-37 178 -44
-37 179 -44
-35 180 -43
-36 181 -43
-35 182 -42
-36 183 -43
-35 184 -42
-31 190 -38
-31 191 -38
-31 192 -38
-31 193 -38
-32 194 -39
-32 195 -39
-32 196 -39
-32 197 -39
-35 99 -40
-35 100 -40
-34 101 -39
-38 102 -43
-37 103 -42
-37 104 -42
-37 105 -42
-37 106 -42
-36 107 -41
-35 108 -40
-35 109 -40
-35 110 -39
-33 111 -37
-35 112 -39
-36 113 -41
-35 114 -40
-35 118 -40
-35 119 -39
-35 120 -40
-35 121 -40
-33 123 -38
-33 124 -38
-34 128 -39
-34 129 -39
-34 130 -39
-25 131 -29
-29 132 -33
-31 133 -35
-32 134 -36
-35 135 -39
-26 136 -30
-33 137 -37
-14 138 -16
-35 139 -39
-33 140 -37
-20 141 -23
-27 142 -31
-33 143 -37
-31 144 -35
-18 145 -21
-37 146 -42
-39 147 -44
-40 148 -45
-38 149 -43
-38 150 -43
-37 151 -42
-38 152 -43
-37 153 -42
-39 155 -45
-39 156 -45
-40 157 -45
-39 159 -45
-39 163 -45
-38 164 -43
-39 165 -44
-41 169 -46
-40 170 -45
-38 171 -43
-40 173 -45
-39 174 -45
-38 175 -43
-39 176 -44
-39 177 -44
-38 178 -43
-38 179 -43
-37 180 -42
-37 181 -42
-36 182 -41
-36 183 -41
-36 184 -41
-33 190 -37
-33 191 -37
-33 192 -37
-36 99 -39
-36 100 -38
-39 102 -42
-38 103 -41
-38 104 -40
-39 105 -42
-36 106 -39
-38 107 -40
-35 108 -38
-37 109 -40
-34 110 -37
-34 111 -36
-36 112 -38
-37 116 -40
-36 117 -39
-36 120 -39
-37 121 -40
-31 123 -33
-34 124 -36
-34 125 -36
-37 127 -40
-38 128 -40
-35 129 -38
-34 130 -37
-36 131 -39
-35 132 -38
-36 133 -38
-32 134 -34
-33 135 -35
-37 136 -40
-37 137 -40
-32 138 -35
-37 139 -40
-37 140 -40
-34 141 -37
-23 142 -24
-40 143 -43
-38 144 -40
-38 145 -40
-38 147 -41
-41 148 -44
-39 149 -42
-40 150 -43
-40 151 -43
-41 152 -44
-41 153 -44
-41 154 -44
-40 156 -43
-40 157 -43
-39 158 -42
-42 160 -45
-42 161 -45
-42 163 -46
-42 164 -45
-40 165 -43
-40 166 -43
-41 169 -44
-40 170 -43
-41 173 -44
-40 174 -43
-39 175 -42
-40 176 -43
-40 177 -43
-39 178 -42
-39 179 -42
-38 180 -40
-38 181 -41
-38 182 -40
-38 183 -41
-36 184 -39
-37 185 -40
-34 190 -36
-34 191 -36
-34 194 -37
-34 195 -37
-34 196 -37
-34 197 -37
-37 99 -38
-37 100 -37
-40 102 -41
-40 103 -40
-38 105 -39
-37 106 -38
-39 107 -39
-35 108 -36
-37 109 -37
-35 110 -36
-35 111 -35
-37 112 -37
-37 113 -37
-37 121 -37
-37 123 -37
-35 124 -36
-35 125 -35
-38 126 -39
-39 127 -39
-26 128 -26
-34 129 -34
-35 130 -36
-37 131 -37
-30 132 -31
-36 133 -36
-33 134 -34
-37 135 -38
-37 136 -38
-38 137 -39
-34 138 -34
-35 139 -35
-37 140 -37
-37 141 -38
-38 143 -39
-37 144 -37
-37 145 -37
-39 147 -39
-42 148 -42
-42 149 -42
-41 150 -41
-40 151 -41
-42 152 -42
-42 153 -43
-41 155 -41
-40 157 -41
-40 159 -41
-43 161 -44
-44 162 -44
-44 163 -44
-43 164 -44
-41 165 -41
-41 166 -41
-43 169 -44
-42 170 -43
-42 173 -43
-42 174 -42
-40 175 -41
-42 176 -42
-41 177 -41
-40 178 -40
-41 179 -41
-40 180 -41
-40 181 -41
-40 182 -40
-40 183 -40
-38 185 -39
-35 190 -35
-35 191 -35
-35 192 -35
-35 193 -35
-35 194 -35
-35 195 -36
-35 196 -36
-35 197 -36
-35 198 -36
-39 99 -37
-38 100 -36
-38 101 -36
-41 103 -40
-40 104 -38
-39 106 -37
-39 107 -37
-38 108 -36
-36 109 -35
-36 110 -35
-36 111 -35
-36 112 -35
-38 123 -36
-34 124 -33
-35 125 -33
-36 126 -34
-36 129 -35
-37 130 -35
-39 131 -37
-39 132 -37
-38 133 -36
-36 134 -35
-33 135 -32
-39 136 -37
-39 137 -37
-32 138 -31
-38 139 -36
-39 140 -37
-31 141 -30
-38 142 -36
-43 143 -41
-40 144 -38
-40 145 -38
-41 147 -40
-43 148 -41
-41 149 -39
-41 150 -39
-42 151 -40
-40 152 -38
-42 153 -40
-41 154 -40
-42 155 -40
-41 158 -39
-44 159 -42
-44 160 -42
-44 163 -42
-44 164 -42
-44 165 -42
-44 166 -42
-42 167 -40
-41 168 -40
-44 169 -42
-44 170 -42
-44 173 -42
-44 174 -42
-43 175 -41
-43 176 -41
-42 177 -40
-41 178 -39
-41 179 -40
-41 180 -39
-41 181 -39
-40 182 -38
-40 183 -38
-39 184 -37
-39 185 -37
-36 191 -34
-36 192 -34
-36 193 -34
-36 194 -34
-36 196 -34
-36 197 -35
-40 99 -36
-40 100 -36
-39 101 -35
-43 103 -38
-41 104 -37
-38 105 -34
-39 106 -35
-39 107 -35
-39 108 -35
-39 109 -35
-41 110 -37
-38 111 -34
-37 112 -33
-39 123 -35
-37 124 -33
-39 125 -35
-32 126 -29
-37 129 -34
-39 130 -35
-40 131 -36
-40 133 -36
-40 134 -36
-42 135 -38
-42 136 -38
-40 137 -36
-40 138 -36
-43 139 -38
-42 140 -38
-40 141 -36
-40 142 -36
-44 143 -40
-41 144 -37
-43 145 -38
-42 146 -38
-44 148 -40
-44 149 -40
-43 150 -39
-43 151 -38
-45 152 -40
-45 153 -40
-43 154 -39
-43 155 -38
-45 156 -40
-46 157 -41
-42 158 -38
-46 159 -41
-46 160 -42
-43 161 -39
-43 162 -39
-45 163 -40
-46 164 -42
-46 165 -41
-44 166 -40
-43 167 -38
-43 168 -39
-46 169 -41
-44 170 -40
-43 171 -38
-45 173 -40
-44 174 -40
-43 176 -39
-43 177 -38
-42 178 -38
-43 179 -38
-42 180 -38
-42 181 -38
-41 182 -37
-41 183 -37
-40 184 -36
-40 185 -36
-37 191 -33
-37 195 -34
-38 196 -34
-38 197 -34
-37 198 -34
-40 99 -34
-40 100 -34
-40 101 -34
-44 103 -37
-42 104 -36
-39 105 -33
-40 106 -34
-43 107 -36
-41 108 -34
-41 109 -34
-40 110 -34
-40 111 -34
-41 112 -35
-40 113 -34
-41 121 -35
-42 122 -36
-41 123 -34
-38 125 -33
-38 126 -33
-38 127 -32
-39 130 -33
-41 131 -34
-43 132 -36
-39 134 -33
-41 135 -34
-43 136 -36
-41 137 -34
-41 138 -34
-44 139 -38
-43 140 -36
-41 141 -34
-44 142 -37
-44 143 -38
-44 144 -38
-42 145 -36
-44 146 -38
-46 147 -39
-44 148 -38
-42 149 -36
-43 150 -36
-44 151 -37
-46 152 -39
-46 153 -39
-45 154 -38
-44 155 -37
-44 156 -37
-46 157 -39
-47 159 -40
-43 161 -36
-44 162 -38
-44 163 -37
-47 165 -40
-47 166 -40
-45 167 -38
-47 170 -40
-46 171 -39
-44 174 -38
-44 175 -37
-45 176 -38
-44 177 -38
-43 178 -36
-44 179 -38
-44 180 -37
-43 181 -36
-43 182 -36
-43 183 -36
-41 184 -34
-41 185 -35
-41 186 -34
-38 191 -32
-38 192 -32
-38 195 -33
-38 196 -33
-39 197 -33
-38 198 -33
-41 99 -33
-41 101 -33
-45 102 -36
-45 103 -36
-42 104 -33
-42 105 -33
-41 106 -33
-41 107 -33
-41 108 -33
-41 109 -33
-40 110 -32
-39 111 -31
-43 113 -35
-42 114 -34
-38 115 -30
-41 116 -33
-47 117 -38
-48 118 -38
-44 119 -35
-44 120 -35
-49 121 -39
-46 122 -36
-40 123 -32
-38 124 -30
-38 125 -30
-39 126 -31
-40 127 -32
-38 128 -30
-38 129 -31
-42 130 -34
-40 131 -32
-40 132 -32
-43 134 -35
-41 135 -33
-41 136 -33
-43 137 -35
-42 138 -33
-43 139 -35
-42 140 -34
-46 141 -36
-42 142 -34
-42 143 -34
-45 144 -36
-43 146 -35
-43 147 -35
-46 148 -37
-45 149 -36
-45 150 -36
-44 151 -35
-47 153 -38
-46 155 -36
-46 156 -37
-46 157 -37
-46 158 -37
-46 159 -37
-45 160 -36
-45 161 -36
-44 163 -35
-47 164 -38
-46 165 -36
-46 166 -37
-48 167 -38
-48 170 -38
-47 171 -38
-46 174 -37
-46 175 -36
-46 176 -37
-46 177 -37
-45 178 -36
-45 179 -36
-44 180 -35
-44 181 -35
-43 182 -35
-44 183 -35
-42 184 -34
-42 185 -34
-40 186 -32
-41 187 -33
-38 191 -31
-39 192 -31
-38 193 -30
-39 196 -31
-40 197 -32
-39 198 -31
-47 211 -38
-47 212 -38
-47 213 -38
-47 214 -38
-43 100 -32
-41 101 -31
-46 102 -34
-46 103 -34
-43 104 -32
-43 105 -32
-43 106 -32
-42 107 -31
-42 108 -31
-43 109 -32
-42 110 -31
-43 111 -33
-39 113 -29
-40 114 -30
-45 115 -34
-48 116 -36
-49 117 -37
-49 118 -37
-49 120 -37
-50 121 -38
-49 122 -37
-47 123 -36
-45 124 -34
-39 125 -30
-39 126 -29
-40 127 -30
-41 128 -31
-42 129 -31
-43 130 -32
-39 132 -30
-41 133 -31
-43 134 -33
-43 135 -32
-41 136 -31
-41 137 -31
-46 138 -34
-44 139 -33
-39 140 -30
-34 141 -25
-45 142 -34
-43 143 -33
-43 144 -32
-44 146 -33
-46 147 -34
-45 148 -34
-44 150 -33
-47 151 -35
-48 152 -36
-48 153 -36
-46 156 -34
-48 157 -36
-49 158 -37
-47 159 -35
-45 166 -34
-47 167 -36
-49 168 -37
-49 169 -37
-47 170 -36
-48 171 -36
-47 172 -36
-48 174 -36
-47 175 -36
-47 176 -36
-47 177 -36
-46 178 -34
-47 179 -35
-46 180 -34
-46 181 -34
-45 182 -34
-45 183 -34
-43 184 -33
-42 185 -31
-42 186 -31
-42 187 -31
-39 190 -30
-39 191 -29
-39 193 -29
-40 196 -30
-41 197 -31
-40 198 -30
-44 208 -33
-44 209 -33
-48 211 -36
-48 212 -36
-48 213 -36
-48 214 -36
-43 100 -30
-47 102 -33
-43 103 -31
-43 104 -31
-44 105 -31
-43 106 -30
-43 107 -30
-43 108 -31
-41 109 -29
-42 110 -30
-41 111 -29
-39 112 -28
-39 113 -27
-45 114 -32
-43 115 -30
-41 116 -29
-42 117 -30
-38 118 -27
-43 119 -30
-43 120 -31
-41 121 -29
-42 122 -30
-50 123 -35
-48 124 -34
-46 125 -33
-42 126 -30
-40 127 -29
-42 128 -30
-42 129 -30
-40 130 -29
-40 131 -29
-39 132 -28
-39 133 -28
-43 134 -31
-46 135 -33
-42 136 -30
-43 137 -30
-46 138 -33
-47 139 -33
-43 140 -30
-43 141 -31
-47 142 -33
-44 143 -31
-45 144 -32
-43 145 -31
-48 146 -34
-45 147 -32
-45 148 -32
-46 151 -33
-48 152 -34
-47 153 -33
-50 157 -35
-47 158 -33
-47 159 -33
-50 168 -35
-50 170 -35
-49 172 -35
-49 173 -35
-49 174 -35
-48 175 -34
-48 177 -34
-47 178 -33
-47 179 -33
-46 180 -33
-47 181 -33
-45 182 -32
-45 183 -32
-43 184 -30
-43 185 -31
-44 186 -31
-42 187 -30
-42 188 -30
-43 189 -30
-42 190 -30
-40 191 -29
-40 193 -29
-40 194 -29
-39 195 -28
-40 197 -29
-41 198 -29
-49 213 -35
-49 214 -35
-49 215 -35
-44 100 -29
-48 102 -32
-48 103 -32
-44 104 -30
-44 105 -30
-44 106 -29
-44 107 -29
-45 108 -30
-43 109 -28
-43 110 -28
-44 111 -29
-40 112 -27
-41 113 -27
-45 114 -30
-45 115 -30
-51 116 -34
-43 117 -28
-42 118 -28
-50 119 -33
-42 121 -28
-42 122 -28
-44 123 -30
-51 124 -34
-49 125 -32
-46 126 -31
-46 127 -31
-43 128 -28
-43 129 -28
-42 130 -28
-41 131 -27
-43 132 -28
-44 133 -29
-44 134 -29
-45 135 -30
-44 136 -29
-44 137 -29
-44 138 -30
-49 139 -32
-44 140 -30
-44 141 -30
-49 142 -32
-47 143 -31
-44 144 -30
-44 145 -30
-49 146 -33
-46 147 -31
-48 148 -32
-45 149 -30
-49 151 -32
-47 152 -31
-48 153 -32
-49 157 -33
-51 158 -34
-49 159 -32
-48 160 -32
-52 169 -35
-51 170 -34
-49 171 -32
-51 172 -34
-50 173 -33
-50 174 -33
-50 175 -33
-49 176 -33
-49 177 -32
-47 178 -31
-49 179 -32
-47 180 -31
-48 181 -32
-46 182 -31
-47 183 -31
-45 184 -30
-46 185 -31
-44 186 -30
-43 188 -28
-40 189 -27
-41 190 -27
-41 191 -27
-41 192 -27
-40 193 -27
-41 194 -27
-41 198 -27
-46 206 -31
-46 207 -31
-46 208 -31
-46 209 -31
-50 213 -33
-50 214 -33
-50 215 -33
-44 99 -28
-44 100 -28
-45 103 -28
-44 104 -28
-44 105 -28
-44 106 -27
-44 107 -28
-43 108 -27
-43 109 -27
-44 110 -28
-43 111 -27
-40 112 -25
-42 113 -26
-41 114 -26
-44 115 -28
-52 116 -33
-49 117 -30
-49 118 -31
-48 119 -30
-45 120 -28
-45 121 -28
-51 122 -32
-44 123 -28
-41 124 -26
-43 125 -27
-48 126 -30
-47 127 -29
-42 128 -26
-42 129 -26
-44 130 -28
-24 131 -15
-33 132 -20
-43 133 -27
-45 134 -28
-43 135 -27
-43 136 -27
-44 137 -28
-44 138 -27
-45 139 -28
-45 141 -28
-44 142 -28
-46 143 -29
-46 144 -29
-45 145 -28
-47 146 -29
-49 148 -30
-46 149 -29
-47 150 -29
-51 151 -32
-48 152 -30
-49 153 -31
-47 154 -29
-52 157 -33
-53 158 -33
-49 160 -30
-49 161 -30
-51 168 -32
-53 169 -33
-52 170 -33
-49 171 -31
-52 172 -33
-51 173 -32
-51 174 -32
-50 175 -31
-48 176 -30
-49 177 -30
-49 178 -31
-49 179 -31
-48 180 -30
-49 181 -30
-46 182 -29
-48 183 -30
-45 184 -28
-46 185 -29
-46 186 -29
-43 189 -27
-42 190 -26
-41 191 -26
-42 192 -26
-41 193 -26
-43 194 -27
-41 195 -26
-43 198 -27
-42 199 -26
-44 200 -28
-44 201 -27
-45 204 -28
-46 205 -29
-45 206 -28
-47 207 -29
-47 208 -29
-45 100 -26
-46 103 -27
-46 104 -27
-46 105 -27
-45 106 -26
-45 107 -26
-44 108 -26
-45 109 -26
-45 110 -26
-43 111 -25
-41 112 -24
-44 113 -26
-47 114 -27
-46 115 -27
-55 117 -32
-39 118 -23
-50 119 -29
-57 120 -34
-50 121 -29
-48 122 -28
-49 123 -29
-50 124 -29
-51 125 -30
-49 126 -28
-46 127 -27
-47 128 -27
-43 129 -25
-43 130 -25
-44 131 -26
-43 132 -25
-44 133 -26
-45 134 -26
-45 135 -26
-45 136 -26
-45 137 -26
-46 138 -27
-46 139 -27
-49 140 -28
-46 141 -27
-46 142 -27
-50 143 -29
-50 144 -29
-46 145 -27
-47 146 -27
-50 147 -29
-51 148 -30
-48 149 -28
-47 150 -27
-47 151 -27
-51 152 -30
-47 153 -27
-49 154 -29
-49 155 -28
-53 158 -31
-54 159 -32
-48 160 -28
-49 161 -29
-49 162 -29
-53 168 -31
-54 169 -32
-53 170 -31
-49 171 -29
-53 172 -31
-52 173 -30
-52 174 -30
-51 175 -30
-51 176 -30
-49 177 -29
-49 178 -29
-50 179 -29
-49 180 -28
-49 181 -29
-47 182 -27
-48 183 -28
-45 184 -26
-46 185 -27
-47 186 -27
-45 187 -26
-43 188 -25
-44 189 -26
-43 191 -25
-43 192 -25
-43 194 -25
-43 195 -25
-43 198 -25
-44 199 -26
-44 200 -26
-45 201 -26
-47 204 -27
-47 205 -27
-46 100 -25
-45 102 -25
-47 103 -26
-48 104 -26
-48 105 -26
-47 106 -26
-46 107 -25
-46 108 -25
-45 109 -25
-45 110 -25
-44 111 -24
-48 112 -26
-47 113 -26
-46 114 -25
-54 115 -29
-56 116 -30
-57 117 -31
-59 118 -32
-60 119 -33
-60 120 -33
-60 121 -33
-57 122 -31
-55 123 -30
-57 124 -31
-56 125 -31
-54 126 -29
-53 127 -29
-49 128 -27
-46 129 -25
-48 130 -26
-45 131 -25
-46 132 -25
-45 133 -25
-46 134 -25
-46 135 -25
-46 136 -25
-46 137 -25
-47 138 -26
-47 139 -26
-48 140 -26
-47 141 -26
-47 142 -26
-50 143 -28
-48 144 -26
-49 145 -27
-47 146 -26
-51 147 -28
-49 148 -27
-49 149 -27
-48 150 -26
-49 153 -27
-50 154 -28
-51 155 -28
-52 158 -28
-54 159 -29
-55 160 -30
-49 161 -27
-50 162 -28
-53 169 -29
-55 170 -30
-53 171 -29
-54 172 -29
-53 173 -29
-53 174 -29
-52 175 -28
-51 176 -28
-50 177 -28
-51 178 -28
-51 179 -28
-49 180 -27
-50 181 -28
-48 182 -26
-48 183 -26
-46 184 -25
-48 185 -26
-47 186 -26
-47 187 -26
-46 188 -25
-42 191 -23
-42 192 -23
-42 194 -23
-43 195 -24
-43 198 -24
-46 201 -25
-46 202 -25
-46 203 -25
-47 100 -24
-47 101 -24
-48 103 -24
-45 104 -23
-47 105 -24
-46 106 -23
-47 107 -24
-45 108 -23
-46 109 -23
-45 110 -23
-48 111 -25
-41 112 -21
-44 113 -22
-48 114 -24
-48 115 -24
-44 116 -22
-45 117 -23
-44 118 -22
-46 119 -23
-44 120 -22
-48 121 -24
-42 122 -21
-46 123 -23
-54 124 -27
-48 125 -25
-50 126 -26
-47 127 -24
-51 128 -26
-54 129 -27
-46 130 -23
-56 131 -29
-44 132 -22
-51 133 -26
-52 134 -27
-51 135 -26
-49 136 -25
-45 137 -23
-48 138 -24
-48 139 -24
-51 140 -26
-48 141 -25
-48 142 -24
-52 144 -27
-48 145 -25
-48 146 -25
-52 147 -27
-51 148 -26
-49 149 -25
-48 150 -25
-52 151 -27
-51 152 -26
-52 153 -27
-52 154 -27
-53 155 -27
-55 156 -28
-53 157 -27
-53 160 -27
-54 161 -27
-53 162 -27
-51 163 -26
-56 166 -28
-56 167 -28
-57 168 -29
-56 169 -28
-54 170 -27
-55 171 -28
-55 172 -28
-54 173 -27
-54 174 -27
-53 175 -27
-51 176 -26
-51 177 -26
-52 178 -27
-51 179 -26
-50 180 -26
-50 181 -26
-48 182 -25
-49 183 -25
-48 184 -24
-48 185 -24
-47 186 -24
-48 187 -24
-47 188 -24
-43 190 -22
-43 191 -22
-43 194 -22
-44 195 -22
-44 197 -22
-44 198 -22
-47 100 -22
-47 101 -22
-52 102 -25
-48 103 -23
-49 104 -23
-46 105 -22
-46 106 -22
-50 107 -24
-46 108 -22
-45 109 -22
-48 110 -23
-47 111 -22
-45 112 -21
-46 113 -22
-45 114 -21
-45 115 -22
-58 116 -28
-60 117 -28
-62 118 -29
-62 119 -29
-64 120 -30
-64 121 -31
-59 122 -28
-60 123 -28
-65 124 -31
-66 125 -31
-64 126 -30
-66 127 -31
-66 128 -31
-68 129 -32
-63 130 -30
-59 131 -28
-67 132 -32
-67 133 -32
-60 134 -28
-55 135 -26
-62 136 -29
-56 137 -27
-66 138 -31
-70 139 -33
-60 140 -28
-64 141 -31
-68 142 -32
-69 143 -33
-67 144 -32
-64 145 -30
-63 146 -30
-69 147 -33
-68 148 -32
-50 149 -24
-54 150 -25
-54 151 -25
-54 152 -25
-50 154 -24
-53 155 -25
-54 156 -25
-55 157 -26
-55 158 -26
-52 162 -25
-53 163 -25
-51 164 -24
-56 166 -27
-55 167 -26
-55 168 -26
-55 169 -26
-55 170 -26
-55 171 -26
-55 172 -26
-55 173 -26
-55 174 -26
-54 175 -25
-54 176 -25
-53 177 -25
-53 178 -25
-52 179 -25
-52 180 -25
-51 181 -24
-51 182 -24
-50 183 -24
-50 184 -24
-49 185 -23
-49 186 -23
-45 187 -22
-47 188 -22
-44 191 -21
-44 192 -21
-44 193 -21
-44 194 -21
-45 195 -22
-44 196 -21
-45 197 -21
-45 198 -21
-49 100 -21
-49 101 -21
-53 102 -23
-47 103 -21
-47 104 -21
-49 105 -21
-49 106 -21
-49 107 -21
-51 108 -22
-48 109 -21
-48 110 -21
-51 111 -22
-50 112 -22
-50 113 -22
-47 114 -21
-58 115 -25
-61 116 -27
-59 117 -26
-61 118 -27
-61 119 -27
-61 120 -27
-58 121 -25
-64 122 -28
-67 123 -30
-65 124 -29
-64 125 -28
-65 126 -29
-64 127 -28
-66 128 -29
-66 129 -29
-63 130 -28
-64 131 -28
-58 132 -25
-53 133 -23
-48 134 -21
-59 135 -26
-62 136 -27
-49 137 -21
-51 138 -22
-58 139 -25
-62 140 -27
-72 141 -32
-51 142 -22
-52 143 -23
-52 145 -23
-53 146 -23
-55 147 -24
-63 148 -28
-62 149 -27
-61 150 -27
-53 151 -23
-54 152 -24
-65 153 -29
-66 154 -29
-68 155 -30
-64 156 -28
-65 157 -29
-62 158 -27
-64 159 -28
-62 160 -27
-63 161 -28
-59 162 -26
-53 163 -23
-58 164 -25
-55 165 -24
-57 166 -25
-62 167 -27
-60 168 -26
-55 172 -24
-55 173 -24
-55 174 -24
-53 175 -23
-53 176 -23
-53 177 -23
-53 178 -23
-52 179 -23
-52 180 -23
-51 181 -22
-51 182 -22
-50 183 -22
-50 184 -22
-48 185 -21
-49 186 -21
-44 191 -19
-44 192 -19
-45 194 -20
-44 196 -19
-44 197 -19
-45 198 -20
-49 100 -20
-49 101 -20
-53 102 -22
-53 103 -22
-49 104 -20
-48 105 -19
-49 106 -20
-49 107 -20
-48 108 -19
-48 109 -19
-47 110 -19
-49 111 -20
-47 112 -19
-47 113 -19
-48 114 -19
-60 115 -24
-61 116 -25
-63 117 -26
-64 118 -26
-61 119 -25
-65 120 -26
-63 121 -26
-64 122 -26
-64 123 -26
-66 124 -27
-66 125 -27
-67 126 -27
-70 127 -28
-68 128 -28
-68 129 -28
-64 130 -26
-69 131 -28
-74 132 -30
-66 134 -27
-67 135 -27
-72 136 -29
-72 139 -29
-72 141 -29
-74 142 -30
-73 143 -30
-66 144 -27
-68 145 -28
-67 146 -27
-72 147 -29
-73 148 -30
-72 149 -29
-70 150 -28
-67 151 -27
-67 152 -27
-71 153 -29
-69 154 -28
-65 155 -26
-65 156 -26
-65 157 -26
-65 158 -26
-64 159 -26
-64 160 -26
-63 161 -26
-64 162 -26
-62 163 -25
-61 164 -25
-61 165 -25
-62 166 -25
-59 167 -24
-57 168 -23
-60 169 -24
-55 171 -22
-52 172 -21
-52 173 -21
-52 174 -21
-52 175 -21
-54 176 -22
-54 178 -22
-52 179 -21
-51 180 -21
-51 181 -21
-51 182 -21
-49 183 -20
-50 184 -20
-49 186 -20
-45 191 -18
-45 192 -18
-46 195 -18
-45 196 -18
-45 197 -18
-46 198 -18
-49 100 -18
-49 101 -18
-53 102 -20
-53 103 -20
-49 104 -18
-48 105 -18
-53 106 -20
-47 107 -18
-49 108 -18
-49 109 -18
-47 110 -18
-48 111 -18
-46 112 -17
-48 114 -18
-61 116 -23
-63 117 -24
-61 118 -23
-63 119 -24
-63 120 -24
-62 121 -23
-66 122 -25
-66 123 -25
-65 124 -24
-66 125 -25
-66 126 -25
-68 127 -25
-64 128 -24
-68 129 -25
-69 130 -26
-69 131 -26
-70 132 -26
-68 136 -25
-67 137 -25
-72 138 -27
-72 143 -27
-74 144 -28
-73 145 -27
-69 146 -26
-68 147 -25
-70 148 -26
-72 149 -27
-68 151 -25
-68 152 -25
-68 153 -25
-72 154 -27
-67 155 -25
-67 156 -25
-70 157 -26
-67 158 -25
-66 159 -25
-68 160 -25
-66 161 -25
-64 162 -24
-65 163 -24
-64 164 -24
-63 165 -24
-61 166 -23
-62 167 -23
-58 168 -22
-58 169 -22
-59 172 -22
-55 173 -20
-53 174 -20
-53 175 -20
-54 176 -20
-53 177 -20
-55 178 -20
-53 179 -20
-52 180 -19
-52 181 -19
-52 182 -19
-50 183 -19
-51 184 -19
-50 186 -19
-45 191 -17
-45 192 -17
-46 195 -17
-46 196 -17
-45 197 -17
-46 199 -17
-46 200 -17
-52 207 -19
-52 208 -19
-52 209 -19
-50 100 -17
-50 101 -17
-52 102 -18
-53 103 -18
-50 104 -17
-51 105 -17
-51 106 -17
-50 107 -17
-50 108 -17
-51 109 -17
-52 110 -18
-51 111 -17
-47 112 -16
-51 113 -17
-50 114 -17
-63 116 -21
-63 117 -21
-62 118 -21
-63 119 -21
-63 120 -21
-65 121 -22
-67 122 -23
-71 123 -24
-66 124 -22
-66 125 -22
-73 126 -25
-69 127 -24
-67 128 -23
-69 129 -23
-66 130 -22
-67 131 -23
-72 132 -25
-73 133 -25
-67 135 -23
-68 136 -23
-73 141 -25
-75 142 -26
-74 143 -25
-71 144 -24
-69 145 -24
-68 146 -23
-69 147 -23
-74 148 -25
-71 149 -24
-69 150 -24
-73 151 -25
-69 152 -23
-68 153 -23
-69 154 -24
-69 155 -24
-68 156 -23
-67 157 -23
-68 158 -23
-66 159 -22
-67 160 -23
-69 161 -23
-65 162 -22
-65 163 -22
-63 164 -21
-64 165 -22
-63 166 -21
-61 167 -21
-63 168 -21
-61 169 -21
-61 170 -21
-60 171 -20
-60 172 -20
-54 175 -18
-54 176 -18
-54 177 -18
-54 178 -18
-53 179 -18
-54 180 -18
-51 181 -17
-52 182 -18
-51 183 -17
-51 184 -17
-51 185 -17
-51 186 -17
-46 191 -15
-46 192 -15
-46 193 -15
-46 194 -15
-47 195 -16
-46 196 -15
-47 197 -16
-51 100 -16
-49 101 -15
-55 103 -17
-54 104 -17
-51 105 -16
-50 106 -15
-49 107 -15
-48 108 -15
-49 109 -15
-51 110 -16
-51 111 -16
-49 112 -15
-51 113 -16
-50 114 -15
-64 117 -20
-63 118 -20
-63 119 -20
-66 120 -20
-66 121 -20
-67 122 -21
-69 126 -21
-71 127 -22
-68 128 -21
-66 129 -20
-72 130 -22
-71 131 -22
-69 133 -21
-70 134 -22
-67 137 -21
-68 138 -21
-76 141 -23
-75 142 -23
-73 143 -23
-69 146 -21
-69 147 -21
-74 148 -23
-72 149 -22
-74 150 -23
-72 151 -22
-69 152 -21
-69 153 -21
-68 154 -21
-72 155 -22
-68 156 -21
-67 157 -21
-70 158 -22
-70 159 -22
-66 160 -20
-66 161 -20
-67 162 -21
-65 163 -20
-65 164 -20
-63 165 -20
-64 166 -20
-63 167 -20
-64 168 -20
-62 169 -19
-62 170 -19
-62 171 -19
-55 176 -17
-55 177 -17
-55 178 -17
-54 179 -17
-54 180 -17
-53 181 -16
-54 182 -17
-51 183 -16
-52 184 -16
-51 186 -16
-46 191 -14
-46 192 -14
-47 195 -14
-47 196 -14
-48 197 -15
-47 198 -14
-50 102 -14
-53 103 -15
-53 104 -15
-52 107 -14
-50 108 -14
-49 109 -13
-48 110 -13
-50 111 -14
-49 112 -13
-66 118 -18
-66 119 -18
-66 120 -18
-67 121 -19
-68 122 -19
-68 123 -19
-69 124 -19
-69 125 -19
-69 128 -19
-70 129 -19
-70 132 -19
-72 133 -20
-70 134 -19
-71 135 -20
-71 136 -20
-71 137 -20
-71 143 -20
-71 144 -20
-71 145 -20
-71 147 -20
-71 148 -20
-70 150 -19
-70 151 -19
-70 152 -19
-69 154 -19
-69 155 -19
-70 156 -19
-69 157 -19
-68 158 -19
-66 159 -18
-67 160 -19
-68 161 -19
-67 162 -19
-66 163 -18
-66 164 -18
-65 165 -18
-66 166 -18
-64 167 -18
-65 168 -18
-61 169 -17
-62 170 -17
-55 176 -15
-55 177 -15
-56 178 -16
-54 179 -15
-52 180 -14
-54 181 -15
-53 182 -15
-53 183 -15
-52 184 -14
-51 185 -14
-51 186 -14
-50 187 -14
-48 188 -13
-50 189 -14
-46 191 -13
-47 192 -13
-47 193 -13
-47 194 -13
-48 196 -13
-48 197 -13
-48 198 -13
-51 100 -12
-51 101 -12
-51 103 -12
-51 104 -12
-53 105 -13
-50 106 -12
-50 107 -12
-51 108 -12
-49 109 -12
-48 110 -12
-49 111 -12
-52 112 -13
-51 113 -12
-64 116 -16
-64 117 -16
-65 118 -16
-66 119 -16
-67 120 -17
-67 121 -17
-67 122 -17
-67 123 -17
-68 124 -17
-70 125 -17
-68 126 -17
-70 128 -17
-70 129 -17
-70 132 -17
-72 133 -18
-70 134 -17
-71 141 -18
-71 142 -18
-71 143 -18
-70 145 -17
-72 146 -18
-71 147 -18
-69 151 -17
-71 152 -18
-70 153 -17
-69 154 -17
-67 155 -17
-69 156 -17
-67 158 -17
-67 159 -17
-67 160 -17
-68 161 -17
-67 162 -17
-66 163 -16
-65 164 -16
-65 165 -16
-65 166 -16
-65 167 -16
-56 176 -14
-56 177 -14
-57 178 -14
-55 179 -13
-54 180 -13
-53 181 -13
-53 182 -13
-53 183 -13
-51 184 -12
-52 185 -13
-49 186 -12
-49 187 -12
-49 189 -12
-46 191 -11
-47 192 -11
-47 193 -11
-47 194 -11
-47 197 -11
-48 198 -12
-51 100 -11
-51 101 -11
-52 103 -11
-54 104 -12
-50 105 -11
-49 106 -11
-53 107 -11
-50 108 -11
-50 109 -11
-51 110 -11
-49 111 -11
-49 112 -11
-51 113 -11
-66 118 -14
-67 119 -14
-67 120 -14
-68 121 -15
-68 122 -15
-68 123 -15
-69 124 -15
-69 125 -15
-69 126 -15
-70 128 -15
-72 129 -15
-70 130 -15
-72 132 -15
-73 133 -16
-71 134 -15
-71 145 -15
-73 146 -16
-72 147 -15
-71 148 -15
-71 149 -15
-71 150 -15
-71 151 -15
-69 152 -15
-71 153 -15
-69 154 -15
-70 155 -15
-70 156 -15
-68 158 -15
-68 159 -15
-70 160 -15
-68 161 -15
-67 162 -14
-68 163 -15
-67 164 -14
-56 175 -12
-56 178 -12
-54 180 -12
-52 181 -11
-52 182 -11
-53 183 -11
-50 184 -11
-51 185 -11
-52 186 -11
-48 187 -10
-50 188 -11
-49 189 -11
-46 191 -10
-46 192 -10
-47 193 -10
-48 194 -10
-46 195 -10
-48 197 -10
-49 198 -11
-52 101 -9
-53 102 -10
-53 103 -10
-53 104 -10
-54 105 -10
-52 106 -9
-51 107 -9
-51 108 -9
-49 109 -9
-52 110 -9
-52 111 -9
-50 112 -9
-52 113 -9
-68 121 -13
-68 122 -13
-69 123 -13
-69 124 -13
-70 125 -13
-69 126 -13
-71 127 -13
-72 128 -13
-71 130 -13
-72 131 -13
-73 136 -14
-72 137 -13
-71 138 -13
-74 139 -14
-73 140 -14
-72 147 -13
-71 148 -13
-72 150 -13
-70 151 -13
-57 173 -11
-57 174 -11
-57 175 -11
-54 180 -10
-53 181 -10
-53 182 -10
-54 183 -10
-51 184 -9
-52 185 -9
-51 186 -9
-52 187 -9
-50 188 -9
-47 189 -9
-48 190 -9
-47 191 -9
-48 192 -9
-48 193 -9
-47 194 -9
-47 195 -9
-48 197 -9
-50 198 -9
-51 100 -8
-51 101 -8
-51 102 -8
-53 103 -8
-54 104 -8
-50 105 -8
-51 106 -8
-53 107 -8
-50 108 -8
-49 109 -7
-52 110 -8
-50 111 -8
-54 112 -8
-53 113 -8
-71 127 -11
-72 128 -11
-70 129 -11
-71 131 -11
-71 134 -11
-71 135 -11
-54 140 -8
-56 141 -9
-53 142 -8
-55 143 -8
-55 144 -8
-55 145 -8
-55 146 -8
-57 149 -9
-56 150 -9
-58 173 -9
-58 174 -9
-58 175 -9
-57 176 -9
-55 178 -8
-53 179 -8
-53 181 -8
-54 182 -8
-54 183 -8
-53 184 -8
-53 185 -8
-52 186 -8
-52 187 -8
-49 189 -7
-50 190 -8
-48 191 -7
-48 192 -7
-48 193 -7
-48 194 -7
-49 197 -7
-49 198 -7
-49 199 -7
-51 101 -6
-51 102 -6
-55 103 -7
-55 104 -7
-51 105 -6
-50 106 -6
-52 107 -6
-51 108 -6
-50 109 -6
-50 110 -6
-51 111 -6
-49 112 -6
-51 113 -6
-52 114 -6
-52 133 -6
-53 134 -7
-52 135 -6
-54 144 -7
-54 145 -7
-54 146 -7
-54 147 -7
-58 171 -7
-58 172 -7
-58 174 -7
-56 175 -7
-54 176 -7
-55 177 -7
-54 180 -7
-54 181 -7
-54 182 -7
-53 183 -7
-54 184 -7
-51 185 -6
-52 186 -6
-51 187 -6
-49 188 -6
-49 189 -6
-50 190 -6
-48 191 -6
-48 192 -6
-48 193 -6
-48 194 -6
-49 197 -6
-49 198 -6
-49 199 -6
-51 100 -5
-51 101 -5
-52 103 -5
-52 104 -5
-51 105 -5
-54 106 -5
-52 107 -5
-50 108 -5
-50 109 -5
-49 110 -5
-51 111 -5
-49 112 -5
-52 113 -5
-59 169 -6
-60 170 -6
-59 171 -6
-55 173 -5
-56 174 -5
-58 175 -6
-58 176 -6
-55 177 -5
-57 178 -5
-58 179 -6
-54 180 -5
-53 181 -5
-54 182 -5
-54 183 -5
-54 184 -5
-51 185 -5
-52 186 -5
-52 187 -5
-47 189 -4
-49 190 -5
-48 191 -5
-48 192 -5
-47 193 -4
-48 194 -5
-47 195 -4
-47 196 -4
-48 198 -5
-54 207 -5
-54 208 -5
-54 209 -5
-51 100 -3
-51 101 -3
-51 102 -3
-51 104 -3
-50 105 -3
-52 107 -3
-51 108 -3
-51 109 -3
-49 110 -3
-49 111 -3
-49 112 -3
-52 113 -3
-58 168 -4
-58 169 -4
-58 170 -4
-57 172 -4
-57 173 -4
-56 174 -4
-57 175 -4
-57 176 -4
-55 177 -4
-55 178 -4
-55 179 -4
-54 180 -4
-54 181 -4
-53 182 -4
-53 183 -4
-54 184 -4
-50 185 -3
-51 186 -3
-52 187 -3
-48 188 -3
-48 191 -3
-47 192 -3
-47 193 -3
-48 194 -3
-47 195 -3
-47 196 -3
-48 198 -3
-51 101 -2
-51 102 -2
-51 104 -2
-50 105 -2
-55 106 -2
-51 107 -2
-49 108 -2
-51 109 -2
-49 110 -2
-49 111 -2
-49 112 -2
-59 167 -2
-60 168 -2
-59 169 -2
-57 170 -2
-59 171 -2
-56 172 -2
-54 173 -2
-57 174 -2
-56 175 -2
-56 176 -2
-58 177 -2
-56 179 -2
-54 180 -2
-53 181 -2
-54 182 -2
-52 183 -2
-53 184 -2
-50 185 -2
-51 186 -2
-51 187 -2
-50 189 -2
-47 190 -2
-48 191 -2
-47 192 -2
-47 193 -2
-47 194 -2
-48 195 -2
-47 196 -2
-48 198 -2
-48 199 -2
-51 100 0
-51 101 0
-52 103 0
-50 104 0
-52 105 0
-49 106 0
-50 107 0
-52 108 0
-50 109 0
-52 110 0
-47 111 0
-52 112 0
-52 113 0
-51 114 0
-59 166 -1
-60 167 -1
-59 168 -1
-57 169 0
-58 170 0
-57 171 0
-57 172 0
-56 173 0
-56 174 0
-57 175 0
-56 176 0
-58 177 0
-55 178 0
-55 179 0
-55 180 0
-54 181 0
-55 182 0
-54 183 0
-54 184 0
-50 185 0
-51 186 0
-49 187 0
-50 188 0
-50 189 0
-46 190 0
-48 191 0
-48 194 0
-48 195 0
-48 196 0
-48 197 0
-48 198 0
-51 101 0
-52 102 0
-51 103 0
-49 104 0
-55 105 0
-55 106 0
-52 107 0
-51 108 0
-50 109 0
-50 110 0
-49 111 0
-48 112 0
-52 113 0
-51 114 0
-58 161 0
-59 162 0
-58 163 0
-58 164 0
-58 165 0
-59 166 0
-60 167 0
-59 168 0
-56 169 0
-55 170 0
-57 171 0
-56 172 0
-58 173 0
-56 174 0
-58 175 0
-55 176 0
-53 177 0
-53 178 0
-55 179 0
-53 180 0
-53 181 0
-55 182 0
-52 183 0
-53 184 0
-52 185 0
-50 186 0
-50 187 0
-51 188 0
-46 190 0
-48 191 0
-48 194 0
-48 195 0
-49 196 0
-47 197 0
-48 198 0
-51 101 2
-54 103 2
-54 104 2
-49 106 2
-52 107 2
-54 108 2
-50 109 2
-52 110 2
-49 111 2
-52 112 2
-51 113 2
-58 157 2
-58 158 2
-57 161 2
-59 162 2
-60 163 2
-56 164 2
-55 165 2
-60 167 2
-58 168 2
-56 169 2
-55 170 2
-54 171 2
-55 172 2
-56 173 2
-58 174 2
-57 175 2
-54 177 2
-54 178 2
-54 179 2
-54 180 2
-54 181 2
-53 182 2
-53 183 2
-52 184 2
-53 185 2
-50 186 2
-50 187 2
-50 189 2
-46 190 1
-48 191 1
-47 195 1
-49 196 2
-48 197 1
-60 212 2
-60 213 2
-60 214 2
-51 101 3
-49 102 3
-55 103 3
-49 105 3
-51 106 3
-51 107 3
-52 108 3
-50 109 3
-50 110 3
-50 111 3
-50 112 3
-50 113 3
-51 114 3
-57 155 4
-58 156 4
-56 157 3
-58 158 4
-58 159 4
-59 160 4
-60 161 4
-58 163 4
-57 166 4
-56 167 3
-60 168 4
-58 169 4
-56 172 3
-56 173 3
-58 174 4
-57 175 4
-55 176 3
-58 177 4
-53 180 3
-54 181 3
-53 182 3
-53 183 3
-52 184 3
-53 185 3
-50 186 3
-50 187 3
-49 188 3
-47 189 3
-46 190 3
-48 191 3
-47 195 3
-49 196 3
-47 197 3
-48 198 3
-48 199 3
-60 212 4
-60 213 4
-60 214 4
-50 100 4
-55 103 5
-51 104 5
-50 105 4
-48 106 4
-54 107 5
-48 108 4
-50 109 4
-49 110 4
-51 111 5
-52 112 5
-51 113 5
-51 115 5
-51 116 5
-51 137 5
-51 138 5
-51 139 5
-56 147 5
-55 148 5
-55 149 5
-56 150 5
-57 152 5
-57 153 5
-58 157 5
-57 158 5
-54 159 5
-57 160 5
-56 161 5
-56 162 5
-58 164 5
-59 165 5
-55 166 5
-55 167 5
-55 168 5
-56 172 5
-56 173 5
-53 174 5
-57 175 5
-54 176 5
-55 177 5
-54 179 5
-54 180 5
-55 181 5
-54 182 5
-54 183 5
-52 184 5
-52 185 5
-49 186 4
-49 187 4
-50 188 4
-47 189 4
-47 190 4
-48 195 4
-46 196 4
-48 197 4
-49 198 4
-48 199 4
-60 212 5
-60 213 5
-60 214 5
-50 101 6
-50 102 6
-55 103 7
-51 104 6
-49 105 6
-53 106 6
-55 107 7
-51 108 6
-50 109 6
-50 110 6
-49 111 6
-50 112 6
-47 113 6
-47 114 6
-51 116 6
-51 117 6
-50 137 6
-50 138 6
-50 139 6
-55 145 7
-55 146 7
-54 147 6
-56 148 7
-56 149 7
-56 150 7
-57 152 7
-57 153 7
-57 154 7
-54 155 6
-54 156 6
-58 157 7
-55 158 7
-58 159 7
-59 160 7
-56 161 7
-59 164 7
-59 165 7
-57 166 7
-57 167 7
-55 168 7
-55 169 7
-55 170 7
-57 171 7
-57 172 7
-57 173 7
-58 174 7
-57 175 7
-57 176 7
-54 177 6
-54 178 6
-52 179 6
-52 181 6
-52 182 6
-54 183 6
-52 184 6
-52 185 6
-49 186 6
-49 187 6
-49 188 6
-48 189 6
-46 190 5
-47 191 6
-46 193 5
-46 196 5
-48 197 6
-60 212 7
-60 213 7
-60 214 7
-49 101 7
-51 102 8
-50 103 7
-49 104 7
-54 105 8
-54 106 8
-51 107 8
-51 108 8
-49 109 7
-49 110 7
-48 111 7
-52 112 8
-48 115 7
-52 116 8
-51 117 8
-50 118 7
-50 119 7
-53 139 8
-52 140 8
-54 141 8
-54 142 8
-56 148 8
-56 149 8
-56 150 8
-52 151 8
-54 152 8
-55 153 8
-54 154 8
-54 156 8
-55 157 8
-56 158 8
-55 159 8
-57 160 8
-59 161 9
-59 162 9
-56 163 8
-55 166 8
-59 167 9
-58 168 9
-57 169 8
-58 172 9
-57 173 8
-55 174 8
-55 175 8
-58 176 9
-54 177 8
-55 178 8
-53 180 8
-53 181 8
-51 182 8
-53 183 8
-50 184 7
-51 185 8
-52 186 8
-49 188 7
-48 189 7
-47 190 7
-47 191 7
-46 193 7
-48 196 7
-49 197 7
-48 198 7
-60 212 9
-60 213 9
-60 214 9
-50 100 9
-50 101 9
-50 102 9
-49 103 9
-50 104 9
-54 105 10
-54 106 10
-53 107 9
-50 108 9
-51 109 9
-47 110 8
-48 111 8
-50 112 9
-47 114 8
-50 115 9
-52 117 9
-51 118 9
-49 119 9
-51 121 9
-49 122 9
-52 134 9
-53 135 9
-52 137 9
-52 138 9
-56 146 10
-55 147 10
-52 148 9
-52 149 9
-55 150 10
-55 151 10
-54 152 10
-57 155 10
-57 156 10
-54 157 10
-58 158 10
-56 159 10
-55 160 10
-57 161 10
-58 162 10
-59 163 11
-58 164 10
-58 165 10
-55 166 10
-58 167 10
-58 168 10
-57 169 10
-56 170 10
-58 171 10
-54 172 10
-55 173 10
-55 174 10
-58 175 10
-56 176 10
-54 177 10
-54 180 10
-52 181 9
-52 182 9
-54 183 10
-50 184 9
-52 185 9
-52 186 9
-50 188 9
-50 189 9
-48 190 8
-47 191 8
-46 193 8
-48 196 8
-49 197 9
-48 198 8
-59 212 11
-59 213 11
-59 214 11
-49 101 10
-52 103 11
-53 104 11
-52 105 11
-54 106 11
-52 107 11
-52 108 11
-51 109 11
-51 110 11
-50 111 10
-47 112 10
-46 113 10
-49 114 10
-45 116 9
-46 117 10
-50 118 10
-48 119 10
-50 122 10
-50 123 10
-50 124 10
-50 125 10
-50 126 10
-50 127 10
-51 129 11
-52 130 11
-50 131 10
-51 132 11
-51 133 11
-51 134 11
-51 135 11
-50 140 10
-50 141 10
-51 143 11
-51 144 11
-51 145 11
-51 146 11
-55 147 12
-53 148 11
-55 149 12
-55 150 12
-55 151 12
-54 152 11
-53 153 11
-54 154 11
-56 155 12
-55 156 12
-54 157 11
-52 159 11
-54 160 11
-56 161 12
-53 162 11
-56 164 12
-56 165 12
-57 166 12
-55 167 12
-57 168 12
-56 169 12
-55 170 12
-54 171 11
-54 172 11
-55 173 12
-56 174 12
-55 175 12
-53 176 11
-56 177 12
-52 180 11
-51 181 11
-51 182 11
-51 183 11
-51 184 11
-51 185 11
-50 186 10
-50 187 10
-49 188 10
-47 189 10
-45 190 9
-45 191 9
-45 192 9
-47 193 10
-45 194 9
-47 197 10
-47 198 10
-59 213 12
-59 214 12
-59 215 12
-49 101 12
-48 102 11
-49 103 12
-52 106 12
-48 107 11
-49 108 12
-50 109 12
-51 110 12
-51 111 12
-45 112 11
-47 113 11
-48 114 11
-51 115 12
-50 116 12
-48 117 11
-45 118 11
-45 120 11
-49 122 12
-49 123 12
-50 126 12
-50 127 12
-50 128 12
-50 129 12
-48 130 11
-49 131 12
-49 132 12
-47 133 11
-50 134 12
-49 135 12
-47 136 11
-49 137 12
-50 140 12
-50 141 12
-52 142 12
-51 143 12
-52 144 12
-50 146 12
-54 147 13
-55 148 13
-53 149 13
-52 150 12
-55 151 13
-56 152 13
-54 153 13
-54 154 13
-54 155 13
-55 156 13
-56 157 13
-57 158 14
-53 159 13
-52 161 12
-54 162 13
-53 163 13
-57 168 14
-57 169 14
-57 170 14
-57 171 14
-56 172 13
-55 173 13
-54 174 13
-55 175 13
-54 176 13
-54 177 13
-55 178 13
-53 179 13
-52 180 12
-51 181 12
-52 182 12
-51 183 12
-52 184 12
-49 185 12
-49 186 12
-50 187 12
-45 190 11
-47 191 11
-46 192 11
-45 193 11
-46 194 11
-46 197 11
-47 198 11
-59 212 14
-59 213 14
-59 214 14
-48 101 13
-48 103 13
-50 106 13
-50 107 13
-49 108 13
-50 109 13
-51 110 14
-51 111 14
-46 112 12
-48 113 13
-49 115 13
-49 118 13
-49 119 13
-50 120 13
-45 122 12
-45 123 12
-49 124 13
-51 125 14
-49 126 13
-46 129 12
-47 130 13
-51 131 14
-50 132 13
-49 133 13
-49 134 13
-47 135 13
-51 136 14
-51 137 14
-50 138 13
-53 139 14
-51 140 14
-53 141 14
-53 142 14
-53 143 14
-49 145 13
-52 146 14
-52 147 14
-54 148 15
-53 149 14
-53 150 14
-54 152 15
-53 153 14
-55 154 15
-54 155 15
-55 156 15
-56 157 15
-54 158 15
-54 159 15
-56 160 15
-56 161 15
-54 162 15
-53 163 14
-56 165 15
-56 166 15
-56 167 15
-56 168 15
-56 169 15
-57 170 15
-55 171 15
-55 173 15
-55 174 15
-52 175 14
-54 177 15
-53 178 14
-51 181 14
-53 182 14
-52 183 14
-52 184 14
-48 185 13
-50 186 13
-50 187 13
-47 189 13
-44 190 12
-47 191 13
-46 192 12
-46 193 12
-45 194 12
-45 195 12
-46 197 12
-58 212 16
-58 213 16
-58 214 16
-48 101 14
-50 103 15
-52 104 16
-48 106 14
-51 107 15
-50 108 15
-47 109 14
-46 110 14
-48 111 14
-46 112 14
-45 113 14
-49 114 15
-48 117 14
-48 118 14
-48 119 14
-48 120 14
-48 121 14
-48 122 14
-45 123 14
-45 124 14
-48 125 14
-49 127 15
-49 128 15
-45 129 14
-49 130 15
-47 131 14
-51 132 15
-49 133 15
-45 134 14
-47 135 14
-48 136 14
-47 137 14
-48 138 14
-51 140 15
-49 141 15
-50 142 15
-49 143 15
-53 144 16
-50 145 15
-50 146 15
-52 147 16
-55 148 17
-51 149 15
-51 150 15
-55 151 17
-54 152 16
-52 153 16
-55 154 17
-53 155 16
-54 156 16
-54 157 16
-53 158 16
-53 159 16
-55 160 17
-54 161 16
-54 162 16
-53 163 16
-56 164 17
-56 165 17
-56 166 17
-55 168 17
-57 169 17
-56 170 17
-52 171 16
-55 173 17
-54 174 16
-53 175 16
-51 176 15
-53 177 16
-52 178 16
-52 179 16
-52 180 16
-51 181 15
-52 182 16
-49 183 15
-50 184 15
-48 185 14
-48 186 14
-48 187 14
-47 189 14
-44 190 13
-45 191 14
-45 193 14
-45 194 14
-44 195 13
-45 197 14
-45 198 14
-47 101 16
-51 102 17
-50 103 17
-51 104 17
-51 105 17
-50 106 17
-51 107 17
-50 108 17
-49 109 16
-49 110 16
-46 111 15
-48 112 16
-49 113 16
-48 122 16
-48 123 16
-49 124 16
-47 125 16
-46 126 15
-47 127 16
-46 130 15
-45 131 15
-47 132 16
-47 133 16
-46 134 15
-47 135 16
-49 137 16
-48 138 16
-47 139 16
-52 140 17
-49 141 16
-52 142 17
-50 143 17
-50 144 17
-50 145 17
-51 146 17
-53 148 18
-51 149 17
-51 150 17
-51 152 17
-53 153 17
-51 154 17
-54 155 18
-52 156 17
-52 157 17
-53 158 17
-53 159 17
-55 160 18
-51 162 17
-53 163 17
-52 166 17
-54 167 18
-55 169 18
-54 170 18
-55 172 18
-54 173 18
-53 174 17
-54 175 18
-54 176 18
-53 177 17
-53 179 17
-52 180 17
-50 181 17
-51 182 17
-48 183 16
-49 184 16
-48 185 16
-49 186 16
-48 187 16
-45 188 15
-47 189 16
-44 190 15
-45 191 15
-44 192 15
-45 193 15
-44 194 15
-45 195 15
-45 196 15
-45 197 15
-57 212 19
-57 213 19
-57 214 19
-47 101 17
-48 102 18
-47 103 17
-50 104 18
-47 106 17
-46 107 17
-47 108 17
-45 109 17
-48 110 18
-45 111 17
-44 112 16
-47 113 17
-47 114 17
-47 122 17
-47 123 17
-48 124 18
-44 125 16
-46 126 17
-44 127 16
-48 129 18
-45 130 17
-45 131 17
-48 132 18
-47 133 17
-44 134 16
-46 135 17
-48 137 18
-50 138 18
-48 139 18
-51 140 19
-48 141 18
-49 142 18
-47 143 17
-49 144 18
-49 145 18
-50 146 18
-50 147 18
-53 148 19
-50 149 18
-52 150 19
-51 151 19
-50 152 18
-52 153 19
-51 154 19
-52 155 19
-52 156 19
-53 157 19
-52 158 19
-51 159 19
-55 160 20
-56 161 20
-54 162 20
-50 163 18
-52 165 19
-52 166 19
-56 167 20
-55 168 20
-53 169 19
-54 170 20
-54 171 20
-54 172 20
-53 173 19
-52 174 19
-51 175 19
-52 177 19
-51 179 19
-50 180 18
-49 181 18
-48 182 18
-48 183 18
-48 184 18
-46 185 17
-47 186 17
-44 194 16
-44 197 16
-49 102 19
-50 103 20
-46 105 18
-50 106 20
-49 107 19
-49 108 19
-44 109 18
-46 110 18
-45 111 18
-47 112 19
-43 113 17
-46 115 18
-48 116 19
-47 117 19
-47 119 19
-47 120 19
-47 123 19
-46 124 18
-44 127 18
-44 128 18
-48 129 19
-46 130 18
-46 131 18
-46 132 18
-49 133 19
-45 134 18
-46 135 18
-50 137 20
-47 138 19
-48 139 19
-46 140 18
-48 141 19
-48 142 19
-48 143 19
-50 144 20
-50 145 20
-47 146 19
-49 147 19
-50 148 20
-52 149 21
-50 150 20
-52 151 21
-50 152 20
-50 153 20
-52 156 21
-53 157 21
-54 158 22
-53 159 21
-54 160 22
-54 162 22
-53 163 21
-54 165 22
-55 166 22
-55 167 22
-54 168 22
-53 171 21
-53 172 21
-52 173 21
-52 174 21
-52 175 21
-50 176 20
-51 177 21
-50 178 20
-50 179 20
-50 180 20
-50 181 20
-49 182 19
-50 183 20
-48 184 19
-49 185 19
-46 186 18
-47 187 19
-43 190 17
-43 191 17
-43 192 17
-43 193 17
-45 194 18
-44 195 18
-44 196 18
-45 100 20
-45 101 20
-49 103 21
-49 104 21
-46 105 20
-49 106 21
-49 107 21
-47 108 20
-44 109 19
-46 110 20
-43 111 19
-43 112 18
-43 114 19
-43 115 19
-43 116 18
-47 117 20
-46 118 20
-41 119 18
-43 120 18
-44 121 19
-45 122 20
-42 123 18
-46 124 20
-46 125 20
-46 126 20
-43 128 19
-43 129 19
-47 130 20
-44 131 19
-44 132 19
-45 133 20
-49 134 21
-45 135 20
-45 136 20
-45 139 20
-46 140 20
-46 142 20
-49 143 21
-50 144 22
-50 145 22
-49 146 21
-49 147 21
-50 148 22
-52 149 22
-50 150 22
-50 151 22
-50 152 22
-50 153 22
-50 154 22
-51 155 22
-51 156 22
-48 157 21
-51 158 22
-51 159 22
-54 161 23
-52 162 22
-50 163 22
-50 164 22
-49 165 21
-54 168 24
-54 169 23
-49 170 21
-54 171 23
-54 172 23
-52 173 22
-53 174 23
-51 175 22
-53 176 23
-52 177 22
-50 178 22
-49 179 21
-48 180 21
-49 181 21
-48 182 21
-49 183 21
-47 184 20
-47 185 20
-45 186 20
-45 187 20
-43 190 18
-43 191 18
-43 194 19
-43 195 18
-43 196 18
-43 198 19
-55 212 24
-55 213 24
-55 214 24
-45 101 21
-46 104 21
-44 105 20
-48 106 23
-47 107 22
-47 108 22
-44 109 20
-44 110 20
-43 111 20
-46 112 21
-41 113 19
-43 114 20
-44 115 20
-47 117 22
-46 118 21
-46 119 21
-43 122 20
-43 123 20
-41 124 19
-46 125 21
-46 126 21
-46 127 21
-43 128 20
-44 129 20
-44 130 20
-47 131 22
-44 132 20
-44 133 20
-48 134 23
-44 135 20
-47 137 22
-47 139 22
-47 140 22
-47 141 22
-47 142 22
-47 143 22
-47 144 22
-47 145 22
-46 146 21
-47 147 22
-51 148 24
-51 149 24
-51 150 24
-48 151 23
-48 153 23
-51 154 24
-48 155 23
-49 156 23
-50 157 23
-49 158 23
-51 159 24
-50 160 23
-48 161 23
-53 162 25
-54 163 25
-54 167 25
-53 168 25
-50 169 23
-51 170 24
-51 171 24
-51 172 24
-49 173 23
-49 174 23
-48 175 23
-51 176 24
-48 177 23
-48 178 23
-48 179 23
-47 180 22
-48 181 23
-47 182 22
-48 183 23
-47 184 22
-47 185 22
-44 186 20
-44 187 20
-45 188 21
-42 190 20
-42 191 20
-43 194 20
-43 195 20
-42 196 20
-43 197 20
-43 198 20
-55 212 26
-55 213 26
-55 214 26
-44 100 22
-44 101 22
-43 103 22
-44 104 22
-45 105 23
-46 107 23
-42 108 21
-43 109 22
-41 110 21
-43 111 22
-42 112 21
-41 113 20
-42 114 21
-46 117 23
-45 118 23
-43 119 22
-44 121 22
-45 122 23
-41 124 21
-43 125 22
-41 126 20
-44 128 22
-46 129 23
-42 130 21
-41 131 21
-20 132 10
-43 133 22
-44 134 22
-47 135 24
-43 136 22
-44 137 22
-48 138 24
-49 139 24
-45 141 23
-46 142 23
-46 143 23
-47 144 24
-47 145 24
-47 146 24
-49 147 25
-48 148 24
-50 149 25
-51 150 26
-49 151 24
-50 152 25
-50 153 25
-50 154 25
-50 155 25
-48 156 24
-51 157 26
-49 158 25
-49 159 24
-50 160 25
-51 161 26
-50 162 25
-53 163 27
-52 164 26
-49 167 24
-49 168 25
-51 169 26
-50 170 25
-50 171 25
-52 172 26
-50 173 25
-48 174 24
-49 175 25
-50 176 25
-49 177 24
-47 180 24
-48 181 24
-47 182 24
-48 183 24
-46 184 23
-46 185 23
-43 186 22
-43 187 22
-43 188 22
-41 191 21
-42 194 21
-42 195 21
-41 196 21
-42 197 21
-42 198 21
-54 212 27
-54 213 27
-54 214 27
-43 100 23
-43 101 23
-43 102 23
-43 103 23
-43 104 23
-47 106 25
-43 107 23
-43 108 23
-43 109 23
-42 110 22
-43 111 23
-41 112 22
-41 113 22
-43 114 23
-45 115 24
-44 116 24
-43 117 23
-44 121 24
-45 122 24
-42 124 22
-43 125 23
-44 126 24
-44 127 24
-39 128 21
-43 129 23
-43 130 23
-41 131 22
-36 132 20
-41 133 22
-43 134 23
-44 135 24
-43 137 23
-43 138 23
-43 140 23
-44 142 24
-45 143 24
-45 144 24
-45 145 24
-50 146 27
-47 147 25
-44 148 24
-48 149 26
-50 150 27
-48 151 26
-49 152 26
-47 153 25
-47 154 25
-50 155 27
-48 156 26
-48 157 26
-46 159 25
-49 160 26
-51 161 28
-51 162 28
-47 163 25
-52 164 28
-51 165 28
-50 172 27
-50 173 27
-47 174 25
-50 175 27
-50 176 27
-46 179 25
-46 180 25
-48 181 26
-47 182 25
-47 183 25
-43 184 23
-45 185 24
-45 186 24
-43 188 23
-43 189 23
-42 190 22
-42 191 22
-42 194 22
-42 195 22
-42 196 22
-42 198 22
-53 211 29
-53 212 29
-53 213 29
-53 214 29
-43 101 25
-44 102 25
-43 103 25
-46 105 27
-46 106 27
-42 107 24
-43 108 25
-42 109 24
-43 110 25
-42 111 24
-40 112 23
-40 113 23
-43 114 25
-44 115 26
-44 116 25
-42 117 24
-44 122 25
-44 123 25
-40 124 23
-41 125 24
-40 128 23
-42 129 24
-42 130 24
-39 131 23
-28 132 16
-44 133 25
-42 134 24
-44 135 25
-41 136 24
-43 137 25
-44 138 26
-42 139 24
-46 140 27
-44 141 25
-44 142 25
-44 144 26
-44 145 25
-46 146 27
-48 147 28
-45 148 26
-48 149 28
-47 150 27
-49 151 28
-47 152 27
-47 153 27
-48 154 28
-49 155 28
-46 156 27
-47 157 27
-49 161 28
-47 162 27
-51 163 30
-50 164 29
-48 170 28
-49 171 28
-50 172 29
-50 173 29
-49 175 28
-49 176 28
-47 177 27
-49 178 28
-47 179 27
-44 181 26
-44 182 26
-46 183 27
-43 184 25
-44 185 26
-44 186 26
-42 188 24
-43 189 25
-40 190 23
-41 191 24
-41 195 24
-41 196 24
-41 197 24
-52 211 30
-52 212 30
-52 213 30
-52 214 30
-42 101 26
-41 102 25
-45 103 28
-45 104 28
-44 105 27
-43 106 26
-41 107 25
-41 108 25
-41 109 25
-41 110 25
-40 111 25
-39 112 24
-42 113 26
-41 115 25
-43 116 26
-39 117 24
-41 119 25
-43 120 26
-44 121 27
-43 122 26
-43 124 26
-37 125 23
-39 126 24
-41 127 25
-40 128 25
-39 129 24
-42 130 26
-40 131 25
-40 132 25
-38 133 23
-45 134 28
-40 135 25
-41 136 25
-45 138 28
-42 139 26
-42 140 26
-43 141 26
-46 142 29
-43 143 26
-44 145 27
-44 146 27
-47 148 29
-45 149 27
-45 150 27
-46 151 29
-46 153 29
-47 154 29
-47 155 29
-49 157 30
-49 158 30
-50 161 31
-50 162 31
-45 163 27
-46 164 29
-47 165 29
-50 166 31
-50 167 31
-47 168 29
-48 169 30
-49 170 30
-48 171 30
-50 172 31
-47 174 29
-48 176 30
-47 177 29
-45 178 28
-47 179 29
-44 180 27
-45 181 28
-45 182 27
-43 183 26
-45 184 27
-44 185 27
-44 186 27
-40 187 25
-40 188 25
-40 189 25
-41 190 25
-40 191 25
-39 195 24
-41 196 25
-40 197 25
-51 211 32
-51 212 32
-51 213 32
-51 214 32
-40 101 27
-40 102 27
-45 103 29
-41 104 27
-40 105 27
-41 106 27
-40 108 27
-40 109 26
-40 110 26
-40 111 26
-40 112 26
-37 113 24
-35 114 23
-38 115 25
-39 116 25
-40 117 27
-36 118 24
-37 119 24
-42 120 28
-43 121 28
-37 122 24
-36 123 24
-41 127 27
-40 128 27
-39 129 25
